foF2 for URSI coefficients
month= 1
 -.56670401E-01 -.18589400E+00  .11681000E+00  .74204500E-03 -.50404102E-01  .17514201E+00
 -.10676800E+02 -.46939902E+01  .22152300E+02 -.29335999E+01  .12057000E+02 -.54730902E+01
  .39384799E+01 -.79244602E+00 -.18442200E+01  .96024299E+00  .82959002E+00  .32399899E+00
  .14503101E+00  .27787701E+02 -.33448299E+02 -.29958000E+02 -.91959200E+01 -.32006900E+01
 -.74421101E+01 -.23251200E+01  .12891800E+01 -.55014902E+00  .37051600E+00  .16917800E+01
  .11767300E+01 -.16604200E+00 -.16802500E+02  .59556899E+01  .52830101E+02 -.32819600E+01
  .10520800E+02  .43929000E+01 -.45209498E+01 -.18421800E+00 -.73771501E+00 -.12903900E+01
 -.16388700E+01 -.10435801E+01 -.88572901E+00  .88806999E+00  .41008101E+01 -.96479502E+01
 -.16153299E+02 -.21834400E+00  .39474299E+01  .96141303E+00  .19678500E+01  .11761400E+01
 -.54910600E+00  .49675000E+00  .14437900E+00 -.16084400E+01  .25783701E+02 -.74568300E+01
 -.13972900E+03  .21213400E+02 -.63833099E+02  .27553801E+02 -.20751900E+02  .58320398E+01
  .81602201E+01 -.53103199E+01 -.24526501E+01 -.21475599E+01 -.11686800E+01 -.18902699E+03
  .16950301E+03  .10902400E+03  .49011799E+02  .20797001E+02  .40788601E+02  .10013400E+02
 -.34116299E+01  .16250100E+01 -.20925801E+01 -.86458597E+01 -.59115601E+01 -.33418301E+00
  .24125601E+02 -.57828999E+02 -.29342801E+03  .18610201E+02 -.44548702E+01 -.16186701E+02
  .60239401E+01 -.62632000E+00  .44056201E+01  .64084601E+00  .50779500E+01  .37175601E+01
  .18122100E+01 -.28479500E+02  .14972501E+03 -.47064301E+02  .16620300E+02  .72637901E+01
 -.21710501E+01 -.79397502E+01 -.81459503E+01 -.32989099E+01  .89807600E+00 -.26043899E+01
 -.17025100E+00  .51564698E+01 -.23960501E+02  .45253201E+02  .33893399E+03 -.61496899E+02
  .13290700E+03 -.57723999E+02  .44581600E+02 -.16028900E+02 -.12819800E+02  .10824700E+02
  .20936000E+01  .48401899E+01  .22849200E+01  .47117499E+03 -.36351700E+03 -.19253999E+03
 -.10019700E+03 -.57575901E+02 -.91463799E+02 -.16745300E+02  .12329300E+00 -.85111398E+00
  .45681901E+01  .18103500E+02  .12303400E+02  .24973300E+01 -.16247999E+02  .10257500E+03
  .45054901E+03 -.30311300E+02 -.11720400E+02  .22041599E+02 -.42208200E+01  .19129200E+01
 -.70434599E+01  .22393899E+01 -.62729402E+01 -.51208401E+01 -.15116600E+01  .46579399E+02
 -.29008801E+03  .12290700E+03  .20938499E+00 -.14206100E+02 -.30545101E+01  .13195400E+02
  .11926100E+02  .43821101E+01 -.56497699E+00  .44720998E+01  .11640100E+00 -.68650198E+01
  .45242500E+01 -.45888699E+02 -.36414700E+03  .73446098E+02 -.12660600E+03  .53433102E+02
 -.44362000E+02  .18631100E+02  .73598700E+01 -.91614399E+01  .67403299E+00 -.45776200E+01
 -.15105400E+01 -.49156299E+03  .36165302E+03  .17071700E+03  .93147903E+02  .68487999E+02
  .92106903E+02  .10875800E+02  .68369699E+01 -.16097100E+01 -.44360399E+01 -.16862000E+02
 -.11412600E+02 -.38243799E+01  .50706902E+01 -.51489101E+02 -.21666701E+03  .15026600E+02
  .94217701E+01 -.10061700E+02  .16325600E+01 -.11589900E+01  .35529301E+01 -.20674901E+01
  .26928201E+01  .24553499E+01  .46611199E+00 -.21218100E+02  .15174699E+03 -.72240196E+02
 -.56732001E+01  .72741599E+01  .25379601E+01 -.65584202E+01 -.58643298E+01 -.21449800E+01
  .10383400E+00 -.24458899E+01 -.60383301E-01  .32232001E+01  .29716101E+01  .12661200E+02
  .14568900E+03 -.30880600E+02  .45695999E+02 -.18189899E+02  .16908300E+02 -.76776500E+01
 -.83991802E+00  .26433799E+01 -.11563300E+01  .15748800E+01  .24925500E+00  .18267700E+03
 -.13743100E+03 -.59196701E+02 -.32950500E+02 -.29339399E+02 -.34428902E+02 -.19552799E+01
 -.49284801E+01  .14404600E+01  .16269400E+01  .58330698E+01  .38827000E+01  .17968400E+01
  .13738400E+00 -.34493901E-01 -.36837801E+00 -.85482597E+00 -.54966402E-03 -.11250500E+00
 -.79503097E-01 -.28576800E-02  .24703599E-02  .81851397E-03 -.83722202E-02  .18083201E-02
  .75119701E-02 -.62196902E-02  .39378500E+00 -.41661602E-01 -.14253600E-01 -.83105999E+00
  .96140601E-01 -.12611701E+00 -.10633100E-01 -.12113400E-01  .79929698E-02  .19303800E-02
 -.90719899E-03  .13754400E-02  .44581699E+00 -.77249102E-01 -.11724401E+01  .77658600E+00
  .59011102E+00 -.47177202E-02 -.35779500E+00  .51672202E-01 -.61432902E-01  .58850199E-02
 -.10049701E-02 -.21943500E-01 -.72895497E-01  .32617801E+00  .12157400E+01  .96490704E-01
 -.52442700E+00  .70686299E+00  .43483600E+00  .13194600E-01  .84690303E-01  .12865900E+00
 -.65370597E-01 -.42071599E-02  .95631601E-02 -.26661601E-01 -.10032001E+01  .23723600E+01
  .25901000E+01  .55839100E+01  .17710700E+01 -.46127999E+00  .62818301E+00  .97157201E-02
  .18588500E+00 -.83048902E-01  .34415001E+00 -.11298100E+00 -.46788701E+00 -.31847301E+01
 -.34010899E+01  .34698400E+01 -.13326200E+01  .47409501E+01 -.92643702E+00 -.41080400E+00
  .10916700E+00  .41939801E+00 -.39053100E+00 -.68103999E-01  .14001100E+00 -.15218700E+00
 -.38226600E+01  .29031100E+01  .48929000E+01 -.30263000E+01 -.17701499E+01 -.75846797E+00
  .12416400E+01  .46690899E+00  .10465200E+01 -.35951301E+00  .34883901E+00  .19457500E+00
  .54560900E+00 -.56640601E+01 -.54102998E+01  .58342600E+00  .17275701E+01 -.31163099E+01
 -.79980499E+00 -.97404999E+00 -.11768200E+01 -.17435400E+00  .27812999E+00  .19417199E+00
  .31105401E-02  .78894697E-01  .70940599E+01 -.39776399E+01 -.19062099E+02 -.99672899E+01
  .11266600E+02 -.79173499E+00 -.25871399E+00  .10029401E+01 -.80572402E+00  .11721900E+00
 -.19721000E+01  .43184501E+00  .28906600E+01  .20118299E+02  .23716801E+02 -.10452100E+02
 -.13117800E+02 -.55554900E+01  .22157199E+01 -.35688701E+00 -.52228701E+00 -.14196100E+01
  .23155301E+01 -.21600901E+00 -.93050402E+00  .70541501E+00  .82013102E+01 -.11256500E+02
 -.85804596E+01  .59239302E+01  .74910098E+00  .16766100E+01 -.71202499E+00 -.19190600E+01
 -.31771400E+01  .12826600E+01 -.10769399E+01 -.45682499E+00 -.11368700E+01  .13482900E+02
  .98788900E+01 -.50121899E+01 -.98992097E+00  .66253200E+01 -.15730100E+01  .21429000E+01
  .34598801E+01 -.50505102E+00 -.37661400E+00 -.66444099E+00 -.44902399E-01 -.46401899E-02
 -.15398100E+02 -.24533600E+00  .48080799E+02  .70545802E+01 -.39524399E+02  .94339104E+01
 -.31009300E+01 -.30747099E+01  .79296798E+00  .58754301E+00  .38378999E+01 -.51194900E+00
 -.57352200E+01 -.37719002E+02 -.57322300E+02  .13773600E+02  .42384499E+02 -.97165602E+00
 -.10717300E+01  .79395399E+01  .13765500E+01  .16557600E+01 -.45812702E+01  .12793800E+01
  .19977500E+01 -.10813000E+01 -.47058001E+01  .91408901E+01  .48191199E+01 -.30317600E+01
  .32294400E+01 -.12951900E+01 -.25345701E+00  .15939400E+01  .26766100E+01 -.11608700E+01
  .86361301E+00  .33388099E+00  .70002300E+00 -.82674303E+01 -.52804799E+01  .42747798E+01
 -.29611499E+01 -.37054999E+01  .23925900E+01 -.15769000E+01 -.28913300E+01  .67319101E+00
  .12011300E+00  .53295702E+00  .11441600E-01 -.71891703E-01  .89637299E+01  .32788000E+01
 -.34708401E+02 -.40102401E+01  .30037300E+02 -.10102100E+02  .32862999E+01  .25140800E+01
  .19652899E-01 -.82488900E+00 -.23923600E+01  .12526800E+00  .35318699E+01  .21743299E+02
  .40106499E+02 -.62579198E+01 -.31518000E+02  .71222103E+00 -.50869602E+00 -.89379597E+01
 -.12535300E+01 -.44351399E+00  .28778501E+01 -.11391200E+01 -.13165900E+01  .47674000E+00
 -.83543602E-02  .23055900E-01  .11614000E+00 -.43021999E-01  .11200800E+00 -.12737100E+00
 -.60508502E+00  .12774900E+00 -.11782000E+00 -.18901000E-01  .15137900E-01  .13222800E-02
  .68059302E-03 -.30744700E-02 -.10260400E+00  .37649401E-01 -.12287800E+00 -.27081201E-01
  .60639799E+00 -.12308000E+00  .10759200E+00  .12416200E+00 -.14773600E-01 -.22845199E-01
  .57580499E-02  .44857801E-03  .88612802E-01 -.18314999E+00  .43402901E+00  .30774100E-01
  .31712800E-01 -.57667398E+00 -.16129600E+00 -.96365303E-01  .28792301E+00 -.37529100E-01
 -.42924300E-01  .67658802E-02  .86127402E-04 -.90117402E-01 -.45848599E+00 -.18310100E+00
 -.22972399E-01  .95658801E-01  .15501601E+00 -.50936103E+00 -.30548099E+00 -.12798101E+00
  .55109400E-01 -.35223801E-01  .90741897E-02  .45872901E-01  .16719601E+00 -.28267601E+00
 -.28509599E+00 -.46785501E+00 -.10415200E+01  .10728300E+01  .14706500E+01 -.75886601E+00
  .66230398E+00 -.70904501E-01 -.19227199E-01  .10949100E-01 -.53324699E-01 -.99137902E-01
  .37696299E+00 -.35350701E+00  .12500600E+01 -.55113000E+00 -.14297100E+01  .11152400E+01
 -.49689901E+00 -.77208900E+00  .87537602E-01 -.49201000E-01 -.38243301E-01  .79735301E-01
 -.13236500E+00  .15865700E+00 -.93636400E+00  .10523600E+00  .11822400E-01  .66075301E+00
  .32304001E+00  .35418400E+00 -.52009600E+00 -.52098902E-02  .51039100E-01 -.22308201E-01
  .28697100E-01  .16555700E+00  .10036300E+01  .80655098E-01 -.39629601E-01 -.30962101E-02
 -.30771101E+00  .54395199E+00  .54929501E+00  .40994999E+00 -.58162000E-01 -.92709400E-02
 -.42241201E-01 -.89495704E-01 -.29844499E+00  .65841901E+00  .58009499E+00  .11412600E+01
  .77351099E+00 -.20276699E+01 -.15668900E+01  .10390900E+01 -.76075000E+00  .98033503E-01
 -.50491798E-02 -.40950198E-02  .49142700E-01  .15575100E+00 -.81326997E+00  .82070601E+00
 -.10915800E+01  .12504700E+01  .15051500E+01 -.21138501E+01  .51105398E+00  .10671400E+01
 -.99881701E-01  .83221100E-01  .82344800E-01 -.11568900E+00  .25281799E-02  .70543902E-03
 -.19398400E-04 -.11598300E-01  .10624000E+00  .19813401E-02  .71149401E-01  .19701500E+00
 -.74249901E-01  .17360700E-01  .41494101E-01  .48971800E-02  .15066400E-01  .68915699E-03
  .54081101E-02 -.25749900E-02 -.10672700E+00 -.10035900E-01 -.60687900E-01  .59863101E-02
  .65159298E-01  .20591000E+00 -.46011701E-01  .15413100E-01 -.88243196E-02  .16120800E-02
 -.31636901E-01  .82213901E-01  .32025099E-01  .34674801E-01 -.10923700E-01 -.37999399E-01
  .15864599E-01 -.94129302E-01 -.28126201E+00  .74566200E-01  .18070601E-01 -.35375498E-01
 -.30873399E-01 -.18392799E-01 -.45253601E-01  .10610700E+00  .16857499E-01  .46379000E-01
 -.20971801E-02 -.26692800E-01  .27406499E+00 -.81686899E-01 -.35443399E-01  .63157603E-01
  .35563100E-01 -.46026699E-01  .14996401E-02 -.91388403E-02 -.77106399E-02 -.71839900E-02
 -.76019001E-03 -.10658400E-01 -.38348999E-01 -.53210601E-01 -.13085700E-01 -.12767500E-01
  .15990900E+00 -.33273599E-02 -.86879404E-02 -.26320701E-02  .17186600E-02 -.89477003E-03
  .40063900E-02  .71603800E-02  .25682401E-01 -.15784800E-01  .19904200E-01 -.55874601E-01
 -.15678599E+00 -.12265700E-01  .50492501E-02  .16385400E-03 -.13390800E-01  .53078602E-02
 -.10317300E-01  .11550100E-01  .82519399E-02  .50075399E-02  .14381100E-01  .18876700E-01
 -.91499398E-02  .21593900E-01 -.94886897E-02 -.50571099E-01  .16280100E-02 -.46093799E-02
  .17702400E-02 -.51636301E-03  .52761198E-02  .35434400E-02 -.16231000E-01  .12478600E-01
 -.79771999E-03  .14736400E-01  .12026300E-01  .12569600E-01  .29719400E-02 -.52397002E-01
  .28832301E-02  .45434800E-02  .13109900E-02 -.48288102E-02 -.24767299E-02 -.15502900E-02
  .20635701E-02  .18209000E-02 -.73007499E-02 -.19589199E-02  .13471900E-01  .54029902E-02
 -.22513600E-03 -.24055101E-02 -.57370700E-02 -.64930702E-02 -.19307800E-02 -.80408799E-02
  .94675496E-02  .90173498E-03  .93002897E-02  .53652502E-02 -.14433700E-01 -.37305601E-03
 -.19978101E-02  .80692498E-02  .16067300E-02  .60849399E-02  .42271698E-02 -.27319700E-02
  .27326499E-02  .41623302E-02  .31669801E-02 -.64325202E-02 -.24573801E-02 -.79048201E-02
 -.15740201E-01  .85993204E-02 -.12048800E-01 -.82501899E-02  .36735700E-02  .35892499E-02
  .26812899E-03 -.11285699E-02 -.60985899E-02 -.50035398E-02 -.47045699E-02 -.48607402E-02
  .10411700E-01 -.13304500E-01  .18273201E-01  .62651201E-02  .90422602E+01  .10873200E+00
 -.12564400E+00 -.36191199E-01 -.66443004E-01  .68837600E-02  .40470702E-02  .31913100E-02
 -.32862500E-03 -.50926898E-02  .80527703E-03  .17690200E-02  .11466300E-02  .80379897E+00
  .13532400E+00 -.71362603E+00  .51028300E-01 -.65205401E+00  .16817501E-01 -.54859601E-01
 -.19822299E-01  .43871202E-01 -.83119301E-02 -.41371699E-01  .48546702E-01  .16682301E-01
  .13593400E+02  .11943700E+01  .30994701E+00  .15574000E+01  .95834099E-01  .45090999E-01
 -.17357799E+00 -.57329301E-01  .10122400E+00  .12803300E+00 -.23208300E-01 -.43687399E-01
  .37251699E-02 -.53997302E+00  .25382400E+01  .13404300E+02 -.65953001E-01  .12368900E+02
 -.14890000E+00  .65290302E+00  .14644200E+00 -.81781799E+00  .19168501E+00  .51289397E+00
 -.74810702E+00 -.27718201E+00 -.50548801E+02 -.12605700E+01 -.13441401E+01 -.12039200E+02
  .32347400E+01 -.46354601E+00  .13002800E+01  .27780700E+00 -.70523500E+00 -.49316099E+00
  .40579700E+00  .31090000E+00  .22903400E-01 -.70567101E+02 -.34215099E+02 -.58993801E+02
 -.34055701E+00 -.54697300E+02  .28737101E+00 -.32232900E+01  .19082900E-01  .32704101E+01
 -.10735600E+01 -.18007400E+01  .32127500E+01  .10918601E+01  .33011700E+02 -.14562600E+02
  .14686900E+02  .33263599E+02 -.11760900E+02  .95259702E+00 -.33326099E+01 -.66474801E+00
  .15850500E+01  .69127601E+00 -.14637500E+01 -.81531000E+00 -.15601100E+00  .26537900E+03
  .10421800E+03  .94113297E+02 -.33116400E+00  .10315600E+03  .30756801E+00  .69189000E+01
 -.12018600E+01 -.52822700E+01  .24009099E+01  .28248701E+01 -.59546599E+01 -.17667000E+01
  .16018900E+02  .25194000E+02 -.28320400E+02 -.37667599E+02  .14897300E+02 -.58306903E+00
  .35068400E+01  .76373702E+00 -.14364500E+01 -.35238400E+00  .18874500E+01  .89316499E+00
  .24105300E+00 -.33567700E+03 -.11808700E+03 -.57967499E+02  .24481499E+01 -.88917198E+02
 -.11727500E+01 -.66931000E+01  .19888600E+01  .37466500E+01 -.23563600E+01 -.21166601E+01
  .50768600E+01  .12650800E+01 -.16283400E+02 -.10615500E+02  .14814400E+02  .14988800E+02
 -.64460201E+01  .34851801E-01 -.13083400E+01 -.32496801E+00  .45250601E+00  .28942600E-01
 -.81192797E+00 -.34772101E+00 -.11411400E+00  .14066000E+03  .45487701E+02  .10145500E+02
 -.17965000E+01  .28761499E+02  .72389698E+00  .24076600E+01 -.93684798E+00 -.95770198E+00
  .84814900E+00  .62164402E+00 -.16378000E+01 -.32870901E+00 -.21890400E+00  .15210201E+01
  .20178800E+01  .88529602E-01  .35510999E+00  .33075798E-01  .12655600E-01 -.15966900E-02
  .18972600E-02 -.30950401E-02  .37603299E-02  .54873298E-02  .12549200E-02 -.27395800E+00
 -.17697500E+01  .16008800E+01 -.35899901E+00  .91655999E-01 -.26065299E-01  .20849001E-01
 -.52326699E-02 -.57049301E-02 -.35548799E-02 -.54192999E-04  .87333901E-04  .39989399E-02
 -.64300001E+00  .18723700E+01 -.30213699E+00  .24706800E+00  .65807599E+00  .25161400E+00
  .45090401E+00  .31159099E-01  .79151299E-02 -.54915000E-01 -.17410399E-01  .26041901E-01
 -.32738100E-02 -.14216400E+01  .14939400E+01  .25279801E+01 -.72124302E+00  .22787300E+00
 -.48594901E+00  .93069799E-01 -.45852002E-01  .60682900E-01 -.33006102E-01 -.51316600E-01
 -.15473900E-01  .42664699E-01  .78702002E+01  .10564100E+02 -.46108799E+01 -.16374100E+01
 -.13973800E+01 -.99427402E+00  .14097600E+01  .13774399E+00  .29934300E-01 -.17828200E-01
 -.59747301E-01 -.93208000E-01 -.27803300E-01 -.26003399E+01 -.15223200E+01  .13168200E+02
  .11516200E+01 -.19036400E+01 -.10915300E+01 -.89012903E+00  .23284300E+00  .18069801E+00
 -.50528999E-02 -.99037200E-01  .84247403E-01 -.23835700E-01  .26162201E+02 -.98964701E+01
  .24371201E+02 -.10111700E+02 -.44410601E+01 -.47531400E+01 -.41685600E+01 -.81881702E+00
 -.29639500E+00  .90814400E+00 -.11598300E-01 -.41244501E+00  .39007802E-01  .38568100E+02
 -.37163399E+02 -.24298401E+02  .48238201E+01 -.84907398E+01  .55675101E+01 -.25678501E+01
  .77801198E+00 -.50262600E+00  .53892601E+00  .71586102E+00  .17017600E+00 -.65219498E+00
 -.37926300E+02 -.24542601E+02  .86165497E+02  .14015100E+01 -.87065601E+01  .76485200E+01
 -.10825000E+02 -.12378100E+01 -.24174100E+00  .87757403E+00  .22278200E+00 -.33749800E-01
  .13370800E+00  .48693901E+02 -.45643501E+02 -.11254000E+02  .10411900E+02  .48307199E+01
  .85036201E+01  .74940701E+01 -.19128300E+01 -.11026000E+01  .67278397E+00  .85420400E+00
 -.86921000E+00 -.42911300E+00 -.14102600E+03  .48692498E+01 -.11752800E+03  .63485001E+02
  .23456699E+02  .26837099E+02  .14328000E+02  .60450401E+01  .71415198E+00 -.37212999E+01
  .21607900E+01  .24466000E+01 -.47771201E+00 -.20612000E+03  .15523399E+03  .11182800E+03
 -.21437901E+02  .50070599E+02 -.22451799E+02  .17966299E+02 -.37753799E+01  .59912199E+00
 -.22905800E+01 -.22544601E+01 -.17964600E+00  .29359000E+01  .68015602E+02 -.40975300E+02
 -.31533899E+03  .15897900E+02  .41903400E+02 -.21672300E+02  .30657600E+02  .36977501E+01
  .56335900E-01 -.37115500E+01 -.22652000E+00  .13781700E+01 -.30770600E+00 -.17467599E+03
  .19946899E+03 -.14347800E+03 -.46196701E+02  .25559700E+01 -.23757799E+02 -.21242800E+02
  .56474400E+01  .26619000E+01 -.27707100E+01 -.24235001E+01  .27197199E+01  .22034299E+01
  .30661600E+03  .25349600E+02  .23987801E+03 -.15295100E+03 -.64375999E+02 -.61358601E+02
 -.24315901E+02 -.16310499E+02  .10317600E+01  .62462602E+01 -.80966997E+01 -.62246299E+01
  .16344800E+01  .44361099E+03 -.28600500E+03 -.25206900E+03  .55114601E+02 -.11479800E+03
  .42370800E+02 -.45731800E+02  .75417299E+01  .23915300E+01  .37469800E+01  .20924599E+01
 -.78575701E+00 -.57468100E+01 -.54033600E+02  .13303101E+03  .43802399E+03 -.35359299E+02
 -.57596199E+02  .25129801E+02 -.37498901E+02 -.45535002E+01  .80361199E+00  .54071298E+01
 -.10947400E+00 -.26886899E+01  .37557101E+00  .22037700E+03 -.29308600E+03  .31285901E+03
  .62416000E+02 -.16437500E+02  .29155899E+02  .24127001E+02 -.67701302E+01 -.28529501E+01
  .38709099E+01  .28219500E+01 -.33770101E+01 -.34200699E+01 -.29738300E+03 -.25741501E+02
 -.21599001E+03  .15804601E+03  .75584900E+02  .61361599E+02  .20847900E+02  .18277599E+02
 -.37689199E+01 -.47236199E+01  .10464700E+02  .70023198E+01 -.20991099E+01 -.41570599E+03
  .23781100E+03  .26597900E+03 -.64765800E+02  .11369300E+03 -.38305599E+02  .48842201E+02
 -.65912900E+01 -.57212400E+01 -.25231400E+01  .22454500E+00  .16470900E+01  .51854901E+01
  .17011499E+02 -.79724403E+02 -.20636400E+03  .19936100E+02  .26215300E+02 -.10193000E+02
  .16538700E+02  .19799900E+01 -.66527897E+00 -.26009200E+01  .18388900E+00  .14784900E+01
 -.18340901E+00 -.92234703E+02  .14201900E+03 -.17544099E+03 -.28302500E+02  .10987200E+02
 -.13087900E+02 -.95286503E+01  .27846899E+01  .11235200E+01 -.17916900E+01 -.11572800E+01
  .14565400E+01  .17123100E+01  .10568700E+03  .38195000E+01  .72022102E+02 -.59543598E+02
 -.30893299E+02 -.22401699E+02 -.72371302E+01 -.72466202E+01  .23740101E+01  .13654701E+01
 -.45622501E+01 -.28680601E+01  .91531998E+00  .14206400E+03 -.72846901E+02 -.10313300E+03
  .27068501E+02 -.41580898E+02  .13395200E+02 -.18696400E+02  .20834999E+01  .32814300E+01
  .56000799E+00 -.72333902E+00 -.84819299E+00 -.17721699E+01  .12050200E+00 -.27378899E+00
 -.20236599E+00 -.90982002E+00  .49107999E+00 -.13176000E+00 -.47484100E-01  .42946801E-01
  .82370304E-02 -.15292100E-02 -.24807800E-02  .51881899E-02 -.51541198E-02 -.99139102E-02
  .20364700E+00 -.26392600E+00 -.50516802E+00 -.90716302E+00  .53227101E-01 -.13488001E+00
 -.10496100E-01  .38124599E-01  .11452000E-02 -.82095998E-03  .57606800E-02  .15519701E-03
  .31163600E+00 -.74754101E+00 -.39294401E+00 -.70032299E+00  .63700497E+00  .32091999E+00
 -.64798999E+00  .34582600E-01 -.32571699E-01 -.15079700E-01  .40369499E-02  .11803200E-01
 -.23727801E-01  .49188200E+00  .52338099E+00 -.73639798E+00 -.65837502E+00 -.75424999E+00
  .75402200E+00  .34309599E+00  .44693802E-01  .74820399E-01 -.33803198E-01 -.27295001E-01
  .18929100E-01  .23528300E-01 -.20639999E+01  .21319101E+01 -.39885500E+00 -.53489599E+01
 -.81035000E+00  .63962601E-01 -.17570200E+01 -.26426199E+00  .27175301E+00  .50410200E-01
  .12183900E+00 -.13503800E+00  .71484096E-01 -.29091401E+01  .60290301E+00  .23134999E+01
  .98888701E+00 -.55047698E+01  .14810100E+01  .86941198E-01 -.27991599E+00 -.59359200E-01
 -.13805699E+00 -.83062500E-01 -.10230700E+00  .15259800E-01 -.16919000E+01  .63980498E+01
 -.31677101E+01  .17099600E+01 -.15521300E+01 -.26876900E+01  .28571999E+01  .65995198E+00
  .37891600E+00  .28083301E+00  .49329199E-01 -.43020401E-01  .23680900E+00 -.88972597E+01
  .26735699E+01  .55806699E+01  .16715900E+01  .18779500E+01 -.32423699E+01 -.26303799E+01
 -.70441997E+00  .11080100E+00  .42032301E+00  .56842798E+00 -.13956100E+00 -.19772001E+00
  .10835500E+02 -.54772501E+01 -.15166600E+02  .34520401E+02  .17276100E+02 -.53958702E+01
  .10381400E+02  .15413800E+00 -.20078599E+01 -.47419199E+00 -.78040302E+00  .45157799E+00
 -.11797200E-01  .16231899E+02  .14733300E+02 -.65922599E+01 -.17533001E+02  .36536900E+02
 -.92241297E+01 -.54903598E+01  .22845900E+01 -.83532703E+00  .12886200E+01  .44057301E+00
  .21100700E+00 -.16313700E+00  .35617001E+01 -.16905701E+02  .99462404E+01 -.37739000E+01
 -.40577598E+01  .53648000E+01 -.43982601E+01 -.26467700E+01 -.14821200E+01 -.92927098E+00
 -.17390300E+00  .51420301E-01 -.63698298E+00  .21486300E+02 -.10283500E+02 -.14582400E+02
  .43041000E+01 -.39731500E+01  .46846600E+01  .49017501E+01  .24266000E+01 -.12411200E+01
 -.11005900E+01 -.17905101E+01  .37277001E+00  .43441999E+00 -.19025200E+02  .11747400E+02
  .55056999E+02 -.60165798E+02 -.45476898E+02  .19124701E+02 -.20177000E+02  .11332200E+01
  .35937500E+01  .12165500E+01  .15158900E+01 -.53520799E+00 -.49101999E+00 -.28725000E+02
 -.55084099E+02  .14860900E+02  .45536701E+02 -.65565697E+02  .18742201E+02  .19329300E+02
 -.43732300E+01  .27342801E+01 -.29251599E+01 -.62169403E+00  .80594897E-01  .32595301E+00
 -.31727600E+01  .12722300E+02 -.66598802E+01  .68151302E+01  .10504200E+02 -.29808700E+01
  .22320199E+01  .23390801E+01  .14667900E+01  .77979100E+00  .16326299E+00 -.11036600E-01
  .50622702E+00 -.13361500E+02  .86102104E+01  .10948100E+02 -.11113500E+02  .68883700E+01
 -.21828499E+01 -.25350900E+01 -.21821499E+01  .13548599E+01  .77561402E+00  .14458899E+01
 -.31376100E+00 -.26953799E+00  .99584703E+01 -.78763099E+01 -.43890099E+02  .34215801E+02
  .33701500E+02 -.15807100E+02  .12080700E+02 -.12383800E+01 -.18926800E+01 -.86150998E+00
 -.86797601E+00  .22211400E+00  .52860498E+00  .14363100E+02  .43714001E+02 -.10003600E+02
 -.33833698E+02  .38127800E+02 -.11603400E+02 -.15920500E+02  .24673700E+01 -.20699301E+01
  .18687500E+01  .27069801E+00 -.27246800E+00 -.17282900E+00 -.15394600E-01  .89755602E-01
  .15725100E+00  .33422300E+00  .18331300E-01 -.29867399E+00 -.82365501E+00  .57502799E-01
 -.14790501E+00 -.59643600E-01  .17349001E-02 -.33889100E-03 -.27539700E-02  .24588100E-03
 -.15452000E+00  .10631500E+00 -.26333300E-01  .33337700E+00  .82294101E+00 -.29008600E+00
  .14417499E+00  .59360299E-01 -.32000900E-02 -.58657601E-01  .31226501E-02 -.74663898E-04
  .12689400E+00  .94751097E-01  .44015601E+00  .74385799E-01  .68827398E-01 -.38288501E+00
 -.53040302E+00 -.34268100E-02  .12104200E+00 -.15094000E+00  .56340300E-01  .19287900E-02
  .20315100E-02 -.94477803E-01 -.42965600E+00  .70738003E-01 -.10450100E+00  .73398098E-01
  .52885002E+00 -.33454901E+00 -.13841900E+00 -.35280898E-01 -.54754000E-01 -.14073400E+00
  .25621799E-02  .64974800E-02  .20475000E+00 -.30019900E+00 -.32266101E+00 -.21690900E+01
  .14470500E+00  .19073100E+01  .20940499E+01  .53976899E+00  .82936800E+00  .20443401E+00
  .75528999E-02  .22281200E-01 -.45337998E-02 -.97926401E-01  .45969999E+00 -.48980299E+00
  .69392897E-01 -.21059401E+01 -.20594800E+01  .18517200E+01 -.80617702E+00  .53218800E+00
  .23202701E-01  .14772800E+00  .13035000E-01  .17113900E-01 -.29058200E+00 -.10479100E+00
 -.11193600E+01  .71771704E-01  .12362600E-01 -.56322598E+00  .86143702E+00  .67334697E-01
 -.25596601E+00  .15172900E+00 -.69007099E-01 -.16438100E-01  .18325200E-01  .15749300E+00
  .11724200E+01 -.19153801E+00  .50315700E-01  .10243900E+00 -.87488902E+00 -.65283102E+00
  .27993199E+00  .11391200E+00  .72599702E-01  .13338099E+00 -.20433299E-01 -.28702300E-01
 -.40095100E+00  .97127497E+00  .21653600E+00  .27440701E+01 -.78647500E+00 -.42691798E+01
 -.26559401E+01 -.10962200E+01 -.97234303E+00 -.29370001E+00  .10139900E+00 -.56361999E-01
  .11880200E-01  .17376600E+00 -.50467598E+00  .11932700E+01  .44207299E+00  .26272900E+01
  .26086800E+01 -.41982002E+01  .94231498E+00 -.10936900E+01 -.14919500E+00 -.19556899E+00
 -.32226000E-01 -.42313099E-01  .69101900E-02 -.24581200E-02 -.91811398E-03 -.77566803E-01
  .62307000E-01 -.37605502E-01  .12823901E+00  .26224199E+00 -.17596400E+00 -.96460897E-03
  .45010801E-01  .17287100E-02 -.53479499E-02  .21080500E-02  .98113799E-02 -.43369501E-03
 -.56868099E-01 -.76438703E-01 -.13045700E+00 -.37123900E-01  .17418499E+00  .25974500E+00
 -.44528000E-01  .32897198E-04  .78576095E-02  .32824001E-02 -.17815899E-01  .97211398E-01
  .52086599E-01  .54788701E-01 -.22507999E-02 -.65045399E-02  .13863300E+00  .25922099E-01
 -.37440300E+00  .96122697E-01  .32353099E-01  .18643601E-01 -.28384401E-01 -.65867100E-02
 -.26566699E-01  .12253700E+00  .27842799E-01  .54204602E-01 -.13557900E+00  .76108500E-02
  .37120101E+00  .22602901E-01 -.41141398E-01  .90730600E-01  .21411700E-01  .14785400E-01
  .60313102E-03 -.33915599E-03 -.13607400E-01  .31397501E-02 -.55628601E-02  .17895900E-01
 -.78717500E-01 -.90049699E-01 -.41802399E-01  .64401798E-01  .18355601E+00  .99251699E-02
  .12562900E-01  .79447002E-03  .21181500E-02  .60813301E-02  .80300402E-02  .10146200E-01
  .73713802E-01  .21197300E-01  .39980400E-01 -.93891002E-01 -.18485799E+00  .59507798E-01
 -.13525800E-01  .89561800E-02 -.54874402E-02  .51801200E-02 -.40360601E-02  .59028598E-03
 -.67647900E-02  .86667500E-02  .15996100E-01  .21226401E-01 -.21539200E-01  .24919100E-01
  .35324399E-02 -.77981897E-01  .35634901E-01 -.24675201E-02  .26364501E-02  .22280301E-03
  .99280700E-02  .24959000E-02 -.10871900E-01  .10495200E-01  .16286300E-01  .22830600E-01
  .12411700E-02  .23048401E-01 -.34991100E-01 -.79560898E-01  .55300798E-02  .10044800E-01
  .29411900E-02 -.32009799E-02 -.81295501E-02  .47308501E-03  .56749498E-02 -.15598000E-02
 -.10891700E-02 -.18485000E-01  .25138600E-01  .16310699E-01 -.82232803E-02 -.27623600E-02
 -.42189001E-02 -.68515502E-02  .18530100E-02  .73544499E-02 -.50117499E-02  .47660898E-02
 -.28366400E-02 -.14461701E-03 -.26584299E-01 -.23484800E-01  .86720102E-02  .17176701E-01
  .30220400E-02  .68547400E-02 -.49960503E-03  .32414801E-02  .61615598E-02  .26146800E-02
  .56474102E-02 -.12258301E-02 -.74131899E-02 -.89138597E-02 -.94883097E-02  .70434702E-02
  .35733799E-02 -.11637300E-01  .60404399E-02  .39776298E-02  .17675300E-02 -.35215300E-02
 -.42545199E-03 -.21576399E-02  .18625300E-02  .17741100E-02  .60020699E-02 -.81637399E-02
 -.17326100E-02  .71649002E-02
month= 3
  .64964499E+01  .35061100E-02 -.21070600E+00  .25288200E-02 -.10453200E+00  .63203499E-02
  .71051600E-02 -.29488599E-02  .12296700E-01  .12004400E-03  .38899400E-02  .38935800E-03
  .22481401E-02  .50713801E+00  .10499901E+01 -.10720299E+01  .44854200E+00 -.92736803E-01
  .81215300E-01 -.71415298E-01 -.74251898E-01  .22633800E-01 -.10999400E-01 -.39056301E-01
  .53066602E-02  .53002499E-01  .10938200E+02  .32800801E+01  .24418299E+01  .25740199E+01
  .19470500E+01  .88625103E-01 -.28172800E+00  .46652898E-01 -.27145100E+00 -.16029200E-01
 -.40774301E-01 -.32561298E-01 -.85102402E-01 -.14604000E+02 -.15348600E+02  .23221300E+02
 -.60755501E+01  .69203200E+01 -.13934200E+01  .73051000E+00  .64909202E+00 -.64379102E+00
  .19245300E+00  .62821800E+00 -.10343700E+00 -.71333098E+00 -.75663902E+02 -.17234301E+02
 -.91555500E+01 -.20868500E+02 -.12270900E+02 -.15305200E+01  .16198900E+01  .86002401E-03
  .17601700E+01 -.10635500E+00  .37555400E+00 -.33779401E-01  .72671402E+00  .63133701E+02
  .53381001E+02 -.11262600E+03  .26100000E+02 -.31617599E+02  .61094799E+01 -.33823800E+01
 -.18867700E+01  .36162100E+01 -.83847302E+00 -.28151300E+01  .14764300E+00  .29500699E+01
  .15950301E+03  .28623800E+02  .15689300E+02  .54797600E+02  .29917801E+02  .52045999E+01
 -.34216001E+01 -.54284298E+00 -.45658898E+01  .61052698E+00 -.11623200E+01  .51161498E+00
 -.20543699E+01 -.10915900E+03 -.64414902E+02  .21403799E+03 -.51862999E+02  .55755001E+02
 -.11595400E+02  .68602099E+01  .24721000E+01 -.80411997E+01  .15228601E+01  .54344902E+01
  .40378201E+00 -.53407998E+01 -.15844000E+03 -.19038000E+02 -.12183600E+02 -.59132702E+02
 -.31131901E+02 -.65727501E+01  .31524999E+01  .98308903E+00  .50732298E+01 -.89070803E+00
  .14013500E+01 -.85455602E+00  .23405299E+01  .81970299E+02  .21944700E+02 -.17733501E+03
  .48698299E+02 -.44319000E+02  .10163000E+02 -.61317501E+01 -.15019100E+01  .78377600E+01
 -.12441100E+01 -.48045402E+01 -.92713398E+00  .44411702E+01  .60750999E+02  .43628201E+01
  .33741300E+01  .22719500E+02  .11687300E+02  .28231499E+01 -.10782700E+01 -.48828399E+00
 -.20166500E+01  .40524599E+00 -.58079201E+00  .41250801E+00 -.93402100E+00 -.22056999E+02
  .34774599E+01  .53870899E+02 -.17362600E+02  .13377300E+02 -.33733301E+01  .19959400E+01
  .34260201E+00 -.27966399E+01  .37819901E+00  .15992900E+01  .47621399E+00 -.13904600E+01
 -.72295703E-01  .21508701E+01  .14425600E+01  .62300801E-01  .27210400E+00  .31028500E-01
  .24575301E-01 -.84713399E-02 -.21269300E-02 -.10818100E-03 -.86507900E-03 -.20885800E-02
  .19204600E-02 -.21767800E+00 -.12037600E+01  .22015500E+01 -.29005599E+00  .74095599E-01
 -.48132699E-01  .67130500E-02 -.10311200E-01  .26584601E-02  .72016800E-03 -.64499403E-03
  .25163700E-02 -.18682301E-02  .84657198E+00 -.36419401E+00  .13113500E+01 -.24057400E+00
  .40505299E+00 -.17048900E+00 -.10375700E+00  .59797101E-01  .39413799E-01 -.14255900E-02
  .42085301E-01  .10074600E-01  .40228799E-01 -.10786901E+01 -.69321200E-01  .17574199E+01
 -.20404100E+00 -.20161200E+00  .97474903E-01 -.44680399E+00 -.66872098E-01 -.28426100E-01
  .41847299E-02 -.55282000E-01 -.74995100E-01  .46376001E-01  .48025999E+01  .35853500E+01
  .11516300E+02 -.16575700E+01 -.64372201E+01 -.29940501E+00  .17295500E+01  .91363803E-01
  .27262601E+00 -.47519900E-01  .13117000E+00  .13531999E+00 -.11862600E+00  .15653900E+01
 -.12212400E+02  .96777000E+01  .71825199E+01 -.22745399E+01 -.92197001E+00 -.17923100E+00
  .46068600E+00 -.29100001E+00  .56631800E-01  .52781001E-01 -.14071500E+00  .67974798E-01
 -.12033200E+02 -.31628799E+01  .35848801E+01  .37915201E+01  .60659499E+01 -.14220800E+00
 -.43941700E+00 -.77556503E+00 -.12643200E+01  .51787902E-01 -.10158900E+01  .28947699E-02
 -.56450099E+00  .29002501E+02 -.17120001E+02 -.21987700E+02 -.86660099E+01  .26168499E+01
  .80241102E+00  .41982098E+01  .10821800E+00  .95933503E+00 -.26778501E+00  .96287900E+00
  .11906900E+01 -.60410100E+00 -.19310600E+02 -.22216700E+02  .43439701E+02  .62683001E+01
  .26859200E+02  .22495201E+01 -.13852000E+02  .33026499E+00 -.16768500E+01  .18710500E+00
 -.51352102E+00 -.15990601E+01  .13874100E+01  .57368598E+01 -.57306801E+02 -.46790798E+02
 -.33735901E+02  .10690100E+02  .68056002E+01  .35544901E+01 -.44099898E+01  .28005199E+01
 -.13134201E+01 -.76831502E+00  .12427900E+01 -.47067499E+00  .71644997E+02  .19772600E+01
 -.49574799E+02 -.20134701E+02 -.47138500E+02  .13321100E+02  .92501097E+01  .27834001E+01
  .62875600E+01  .12657900E+01  .65783601E+01 -.72824001E+00  .28229899E+01 -.18086600E+03
  .89487000E+02  .99142601E+02  .55085499E+02 -.17370501E+02 -.12564400E+02 -.80686197E+01
  .29872100E+01 -.50412798E+01  .21935799E+01 -.33632400E+01 -.51972399E+01  .27556500E+01
  .23748800E+02  .32649601E+01 -.31688300E+03 -.53109198E+01 -.47222198E+02 -.69223800E+01
  .36306000E+02 -.29686501E+01  .36738999E+01 -.30596399E+00  .58521301E+00  .53214898E+01
 -.46127400E+01 -.40246101E+02  .37029999E+03  .22350901E+02  .68761398E+02 -.17983900E+02
 -.14441100E+02 -.13251500E+02  .13852200E+02 -.91119499E+01  .52181001E+01  .26695499E+01
 -.37851100E+01  .12012500E+01 -.18318401E+03  .23359600E+02  .14904300E+03  .41651901E+02
  .11802300E+03 -.46890301E+02 -.31452400E+02 -.35554900E+01 -.11975400E+02 -.60910702E+01
 -.16532101E+02  .27033200E+01 -.64144702E+01  .43746899E+03 -.19364900E+03 -.19532800E+03
 -.12436200E+03  .43151901E+02  .40306900E+02 -.59502703E+00 -.12423400E+02  .10854900E+02
 -.66942000E+01  .40090299E+01  .97693396E+01 -.56387100E+01 -.76294198E+01  .53137299E+02
  .49822800E+03 -.47070098E+01  .38984901E+02  .82021103E+01 -.39785099E+02  .51975999E+01
 -.34889801E+01  .21623001E+00 -.10815200E+00 -.68308902E+01  .59149499E+01  .60748299E+02
 -.56590900E+03  .75293602E+02 -.65878098E+02  .10865500E+02  .12336900E+02  .17385500E+02
 -.17302401E+02  .11865600E+02 -.73740902E+01 -.34928999E+01  .47089000E+01 -.13104500E+01
  .20216499E+03 -.39229000E+02 -.18240401E+03 -.35445702E+02 -.12860001E+03  .57591202E+02
  .39165298E+02  .11029900E+01  .97686796E+01  .88332396E+01  .17833700E+02 -.34457300E+01
  .66962700E+01 -.44814200E+03  .19543700E+03  .17198900E+03  .12522500E+03 -.42560200E+02
 -.48545399E+02  .11762900E+02  .17063900E+02 -.10670000E+02  .86008396E+01 -.11263300E+01
 -.84294596E+01  .53161402E+01 -.27348900E+01 -.39614101E+02 -.23547701E+03  .55313601E+01
 -.11996700E+02 -.32634599E+01  .15742100E+02 -.26760600E+01  .12288500E+01 -.47745101E-01
 -.88956997E-01  .30149000E+01 -.26075101E+01 -.28108900E+02  .26465201E+03 -.63852299E+02
  .23526400E+02 -.11987000E+01 -.37567899E+01 -.76322198E+01  .74837599E+01 -.53233700E+01
  .34732299E+01  .15549500E+01 -.20526900E+01  .52305400E+00 -.79433098E+02  .17324600E+02
  .78540703E+02  .98084698E+01  .51518200E+02 -.23918699E+02 -.16554800E+02  .41387799E+00
 -.28195801E+01 -.41062398E+01 -.69493198E+01  .14657100E+01 -.25981400E+01  .16406400E+03
 -.73889397E+02 -.55624802E+02 -.47166801E+02  .13776900E+02  .20097799E+02 -.69661002E+01
 -.77890201E+01  .39241099E+01 -.39213400E+01 -.46013600E+00  .27429800E+01 -.18864000E+01
  .18640500E+00 -.78817703E-01 -.18828100E+00 -.94514197E+00 -.41105400E-03 -.72706103E-01
 -.19474301E+00  .13817200E-01  .17483201E-01 -.45930701E-02 -.36783600E-02 -.15742200E-02
  .24342099E-02  .39496198E-01  .19197100E+00 -.87926298E-01  .18787000E-03 -.91718102E+00
  .20876700E+00 -.10285200E+00 -.16394600E-01  .34240400E-02  .49172798E-02 -.75170100E-02
  .23712700E-02  .41607200E-03  .66929197E+00 -.37218201E+00 -.99147302E+00  .50222898E+00
  .37001801E+00  .19399700E+00 -.34683999E+00 -.80852702E-01 -.68721503E-01  .23832999E-01
 -.65424298E-02  .23552000E-02  .52420599E-02 -.13478700E-01  .10735600E+01 -.23787700E+00
 -.35819301E+00  .58692902E+00  .44594499E+00  .23803300E+00  .36782999E-01 -.73383503E-01
  .21302899E-01 -.33257298E-01 -.16961501E-02  .27894499E-03 -.30898399E+01  .23722899E+01
  .20733299E+01  .49773202E+01  .44517102E+01 -.20073500E+01  .23603799E+01 -.58473003E+00
 -.10594300E+00  .97939096E-01  .13561399E+00  .70581801E-01 -.79620399E-01 -.19914900E+01
 -.16636600E+01  .32447801E+01 -.45155401E+01  .44269600E+01 -.28620999E+01 -.13986400E+01
 -.82539901E-01 -.32871300E+00 -.19426700E+00  .18906300E+00 -.17815599E-01 -.16704100E-02
 -.47708998E+01  .51828299E+01  .61870098E+01  .70908701E+00  .20659599E-01 -.18361501E+01
 -.35927299E+00  .47931001E+00  .38338000E+00 -.16939400E+00  .12963501E+00  .56119800E-01
 -.52892301E-01 -.33182700E+01 -.54458499E+01  .31814899E+01  .46123701E+00 -.38148099E+00
 -.19384100E+00 -.24675200E+01 -.31974199E+00  .18385001E+00 -.39309701E+00  .46843299E+00
 -.11401000E+00 -.21300800E-01  .14950100E+02  .43111601E+00 -.14491700E+02  .30151801E+01
 -.72990999E+01  .10036400E+02 -.71460800E+01  .28234401E+01  .13762100E+01 -.32230601E+00
 -.85698801E+00 -.30385900E+00  .28273499E+00  .12593000E+02  .12978800E+02 -.38709099E+01
  .76529198E+01  .46606698E+01  .95298100E+01  .69960599E+01 -.14107300E+00  .19486600E+01
  .14585400E+01 -.74552202E+00 -.26436701E+00 -.49113099E-01  .94291201E+01 -.15038500E+02
 -.13287400E+02 -.61422701E+01 -.17660900E+01  .28048999E+01  .41283698E+01 -.57533401E+00
 -.15343699E+01  .37436900E+00 -.22249401E+00 -.22603300E+00  .12980901E+00  .88173904E+01
  .10859700E+02 -.98484898E+01 -.14154700E-01 -.36384499E+01 -.32022700E+01  .43995800E+01
  .16191500E+01  .34339300E+00  .98678499E+00 -.11813800E+01  .36951599E+00  .71230397E-01
 -.24822901E+02 -.11713800E+02  .33656502E+02 -.26554399E+02 -.16885900E+01 -.15003700E+02
  .75927601E+01 -.42983799E+01 -.39327400E+01  .34110999E+00  .16655101E+01  .45486400E+00
 -.30930001E+00 -.24867800E+02 -.31563900E+02 -.35601101E+01  .11967000E+01 -.28261600E+02
 -.11328900E+02 -.95060301E+01  .15001600E+01 -.32666900E+01 -.31572101E+01  .98043001E+00
  .86708599E+00  .15577200E+00 -.48860602E+01  .11856800E+02  .72399998E+01  .67167101E+01
  .15915400E+01 -.80947798E+00 -.37878900E+01  .20272801E-01  .16127900E+01 -.27856499E+00
  .85850202E-01  .19763801E+00 -.92188999E-01 -.62868299E+01 -.52400098E+01  .81594200E+01
 -.52044000E-02  .51766100E+01  .32922900E+01 -.19312600E+01 -.17657900E+01 -.69790298E+00
 -.67197102E+00  .78943199E+00 -.28432599E+00 -.64674802E-01  .12936500E+02  .10572300E+02
 -.21898399E+02  .18663700E+02  .52537198E+01  .68958302E+01 -.25637100E+01  .21538701E+01
  .27685101E+01 -.11922200E+00 -.10159800E+01 -.23231301E+00  .84545501E-01  .14873600E+02
  .20254801E+02  .56908998E+01 -.50833201E+01  .19209000E+02  .44569302E+01  .36234901E+01
 -.12958500E+01  .17648799E+01  .20589399E+01 -.42929599E+00 -.63658798E+00 -.11454000E+00
 -.14363900E-01  .24052300E-01  .27219799E+00 -.47243301E-01  .88868499E-01 -.34597300E-02
 -.75729197E+00  .12157900E+00 -.23912000E-02 -.42110700E-01 -.15753800E-01 -.55952102E-03
  .66062901E-02 -.20859900E-02 -.26963899E+00  .20716000E-01 -.10196300E+00 -.31866800E-01
  .76210499E+00 -.83977397E-03 -.26766399E-02  .11438600E+00  .15947500E-01 -.43472100E-01
 -.18435700E-02 -.31055999E-02  .50375499E-01  .35493499E+00  .33330500E+00 -.20024100E+00
  .20044400E+00 -.46901399E+00 -.21213400E+00  .12766300E+00  .24531201E+00  .27000500E-01
  .43465301E-01  .29189499E-01 -.13995600E-02 -.31407900E-01 -.32700199E+00  .31599000E+00
 -.19123700E+00 -.20214701E+00  .23199500E+00 -.46026900E+00 -.25207001E+00  .12745900E+00
 -.21618299E-01  .21590900E-02 -.34030599E-02  .11870900E-01  .40109900E+00 -.88082001E-01
 -.13486100E+01  .43220100E+00 -.10418600E+01  .99352904E-01  .21126001E+01 -.43480200E+00
  .14255200E+00  .79033203E-01  .33372998E-01  .40994499E-01 -.13092101E+00 -.15593300E-01
  .15358500E+01  .10343000E+00  .12743400E+01  .27335399E+00 -.21080899E+01  .84897503E-01
 -.10630600E+00 -.35034201E+00 -.44483300E-01  .97757600E-01  .52928299E-01  .53339500E-01
 -.13717100E+00 -.34427401E+00 -.82919002E+00  .58632803E+00 -.55650699E+00  .62158102E+00
  .42323899E+00 -.29531300E+00 -.33875301E+00 -.14243400E+00 -.63991800E-01 -.45051899E-01
 -.15464500E-01  .20041499E-01  .88178301E+00 -.36965600E+00  .55196798E+00  .61408198E+00
 -.46751800E+00  .59853703E+00  .34679300E+00 -.29622900E+00  .32938600E-01 -.10637900E+00
  .17281801E-01 -.23587700E-01 -.73764002E+00  .33579901E+00  .20925601E+01 -.21325500E+00
  .93437999E+00 -.13231000E+01 -.29066999E+01  .47380301E+00 -.26432401E+00 -.29881701E-01
 -.11055000E+00 -.49017701E-01  .18929300E+00 -.65229498E-01 -.24713800E+01  .47038499E-01
 -.12820500E+01 -.84626498E-02  .28863201E+01 -.13154401E+01  .22155000E+00  .34804499E+00
  .12060800E+00 -.53455599E-01 -.72414503E-01 -.62181700E-01  .72520501E-02 -.68008699E-02
 -.18895400E-02 -.49206901E-01  .22133199E-01 -.39399501E-01  .73827401E-01  .26686299E+00
 -.62295701E-02  .16642701E-01  .31366002E-01 -.12910000E-01  .56737098E-02 -.32509700E-02
  .99651599E-02  .36948200E-03 -.28832000E-01 -.47178600E-01 -.71554102E-01 -.40941499E-01
  .48806500E-02  .26460400E+00 -.31687800E-01  .16307199E-01 -.11978900E-02 -.13970600E-01
 -.72788098E-02  .67240298E-01  .89345500E-01 -.66669703E-01 -.16729800E+00 -.63457303E-01
  .16456600E+00 -.95783100E-01 -.10642800E-01 -.71666799E-01  .26126700E-01 -.16986201E-01
 -.80947196E-02  .79378197E-02 -.77990897E-01  .10032800E+00  .19100600E+00 -.74023902E-01
 -.14744800E+00 -.63834101E-01  .11956600E-01 -.92431404E-01 -.29885700E-01 -.86743400E-01
  .10724300E-01 -.14924200E-01 -.40993602E-02  .85375998E-02 -.95699700E-02 -.66010100E-02
  .12648799E-02  .22884901E-02 -.33944100E-01 -.32145899E-01  .13464800E-01 -.14671900E-01
  .21670300E+00  .11220400E-02 -.13439400E-01 -.53468598E-02  .17981400E-02  .10331200E-01
 -.35916601E-03 -.21513600E-02  .29335201E-01  .45677102E-02 -.11280200E-01 -.40251601E-01
 -.21399599E+00 -.17965700E-01  .12942600E-01  .68523001E-03 -.11765200E-01  .15343200E-01
 -.90290196E-02  .24907100E-02  .50995499E-02  .21679699E-02  .38786100E-02 -.57905499E-03
  .17419200E-01  .22792500E-02 -.94748996E-02 -.82597502E-01 -.33956200E-01  .30473601E-02
 -.14842700E-02  .28076801E-02  .36698300E-02 -.11604500E-02 -.53707398E-02  .90783900E-02
 -.23178400E-01 -.32138301E-04  .10723800E-01  .41313199E-02  .34484800E-01 -.78633800E-01
  .15273100E-02  .88558001E-02 -.25803000E-02 -.43759001E-02 -.59484201E-02  .55723502E-02
  .49004098E-02 -.80038896E-02  .66925301E-02 -.11256700E-01  .17636100E-01  .10242500E-01
  .10128200E-01 -.34672299E-02  .85627299E-03 -.57201898E-02 -.30031800E-02 -.66873501E-02
  .23144900E-03  .74646301E-02 -.53690402E-02 -.35037501E-02 -.19947400E-01 -.16702600E-01
 -.94654104E-02  .87096803E-02  .10921700E-01  .53740302E-02  .74423701E-02 -.43384298E-02
  .61960202E-02  .57885800E-02  .24910299E-02 -.35005300E-02 -.14298400E-02 -.38411799E-02
 -.79299305E-02  .10289300E-01  .12049300E-02 -.82924701E-02  .17799800E-02  .48576300E-02
  .49866899E-02 -.83169397E-02 -.84308498E-02 -.24144500E-02  .44936099E-03 -.33364701E-02
  .58495398E-02 -.23060299E-02 -.10994000E-02  .11091200E-01  .93547697E+01  .94435401E-01
 -.14767200E+00  .22325300E-01 -.66562697E-01  .64551900E-02  .71013002E-02  .15312399E-02
  .52756201E-02 -.43811002E-02  .78036701E-02  .82716998E-03  .32220499E-02  .14309700E+01
 -.55806398E+00 -.93664098E+00  .87361999E-01 -.11427000E+00  .95004097E-01 -.61816901E-01
  .29382501E-01  .26647501E-01 -.19820200E-01 -.67789301E-01  .34543801E-01  .35740901E-01
  .22403200E+02  .11766300E+01  .82376301E+00  .19529500E+01  .22652701E+00  .17555401E+00
 -.18350101E+00 -.66431202E-01 -.92821598E-01  .11012000E+00 -.13188501E+00 -.25610600E-01
 -.85806899E-01 -.22566500E+02  .13263100E+02  .11604800E+02 -.77718601E-01  .30070400E+01
 -.14669000E+01  .54267001E+00 -.84608901E+00 -.57419199E+00  .35964799E+00  .11559000E+01
 -.52936798E+00 -.49019101E+00 -.10281300E+03 -.14699399E+01 -.36512201E+01 -.11031500E+02
 -.24080000E+01 -.15228800E+01  .86638403E+00  .76788402E+00  .57450098E+00 -.81555802E+00
  .76482803E+00  .44512801E-01  .64458799E+00  .79656700E+02 -.83956902E+02 -.35388802E+02
 -.70181900E+00 -.96533699E+01  .59159298E+01 -.27052100E+01  .44240699E+01  .24526200E+01
 -.17300200E+01 -.51857300E+01  .23146100E+01  .22100699E+01  .16244099E+03 -.11576800E+02
  .13016100E+02  .22480101E+02  .93512096E+01  .39900401E+01 -.13231900E+01 -.26015301E+01
 -.15997500E+01  .21655200E+01 -.18506200E+01  .13328201E+00 -.17414000E+01 -.10607100E+03
  .20927100E+03  .14487400E+02  .59226400E+00  .12434700E+02 -.10262000E+02  .61219501E+01
 -.91074400E+01 -.42143502E+01  .35042400E+01  .99167404E+01 -.44190302E+01 -.43868198E+01
 -.13010800E+03  .21941999E+02 -.16742201E+02 -.19974199E+02 -.12768400E+02 -.42729402E+01
  .66447699E+00  .33461499E+01  .19431500E+01 -.23738599E+01  .19651000E+01 -.34162000E+00
  .19453800E+01  .53778198E+02 -.22360300E+03  .42514301E+02  .13637600E+01 -.74987001E+01
  .81515703E+01 -.60994101E+01  .82596903E+01  .32012200E+01 -.31969900E+01 -.86662302E+01
  .38968301E+01  .39740801E+01  .44345200E+02 -.10213500E+02  .66664901E+01  .65673299E+01
  .57137499E+01  .16328599E+01 -.25260599E-01 -.14565400E+01 -.83667701E+00  .92139202E+00
 -.75927699E+00  .19097000E+00 -.76939797E+00 -.63921399E+01  .85842102E+02 -.32378700E+02
 -.12869300E+01  .18333200E+01 -.24308500E+01  .22054400E+01 -.27592299E+01 -.88867497E+00
  .10843400E+01  .28513501E+01 -.13001601E+01 -.13444901E+01 -.25455001E+00  .16294301E+01
  .19727200E+01  .12602700E+00  .28916299E+00  .66119798E-01  .25946600E-01  .75717899E-02
  .69227801E-02 -.17887200E-02  .39066900E-02  .39208801E-02  .34577800E-02 -.10874800E+00
 -.16205200E+01  .15131400E+01 -.30761600E+00  .11592100E+00 -.43206900E-01  .40799100E-01
 -.15789401E-01 -.43555102E-02 -.48596500E-02  .32399700E-02 -.40565699E-03  .18198100E-02
 -.21059000E+01  .20346999E+01  .45072499E+00  .25951400E+00  .68414903E+00  .35181201E+00
  .27433699E+00  .65732397E-01  .87554500E-01 -.37391599E-01  .19905901E-01  .38603101E-01
  .11190100E-01 -.88665098E+00  .26663899E+01  .23488801E+01 -.65570700E+00  .30059499E+00
 -.11432600E+00  .14962000E+00 -.74486099E-02  .23148900E-01 -.10965500E-01 -.81649102E-01
 -.44137299E-01  .59887100E-01  .78613300E+01  .11207200E+02 -.38972299E+01 -.42469800E+00
 -.12150400E+01 -.10411299E+01  .20888700E+01 -.29721200E+00 -.22406700E+00  .10835800E-01
 -.24859500E-02 -.10010200E+00 -.14351700E+00 -.34586501E+00 -.10270400E+01  .16597700E+02
  .13850900E+01 -.12289800E+00 -.14268301E+01 -.90681797E+00  .64707297E+00  .13637500E+00
  .16905500E+00 -.66121198E-01  .18455800E-01  .34627099E-01  .40223202E+02 -.21847200E+02
  .21056900E+02 -.18314699E+02  .10447700E+01 -.73053002E+01 -.55275302E+01 -.11359100E+01
 -.13362900E+01  .83694202E+00 -.50075501E+00 -.48170799E+00 -.26580501E+00  .24416100E+02
 -.49425598E+02 -.24544800E+02 -.12368400E+01 -.18222200E+02  .36764400E+01 -.40472298E+01
 -.59959602E+00 -.37455302E-01  .78904599E-01  .13730600E+01  .72332197E+00 -.85321403E+00
 -.39849899E+02 -.17024099E+02  .60561901E+02 -.79050598E+01 -.64610500E+01  .40380802E+01
 -.14608400E+02  .22936499E+01  .23707700E+01 -.41451800E+00  .11717300E+00  .37324101E+00
  .12872300E+01  .22597300E+02 -.38161701E+02 -.17275700E+02  .37955301E+01 -.84898500E+01
  .86587095E+01  .50051298E+01 -.59441199E+01 -.15101399E+01 -.15327500E+01  .17278500E+00
  .27291700E-01 -.79695702E+00 -.19244400E+03  .57035198E+02 -.14031599E+03  .11317300E+03
 -.14888800E+02  .39515598E+02  .27475401E+02  .54031401E+01  .48526702E+01 -.31892200E+01
  .42042098E+01  .20495999E+01  .18567300E+01 -.11507500E+03  .24083800E+03  .10535400E+03
  .14320800E+02  .11078700E+03 -.20546301E+02  .22854500E+02  .55304499E+01  .23623499E+00
 -.25553399E+00 -.43976798E+01 -.28276899E+01  .38684399E+01  .81606201E+02 -.89484596E+02
 -.18618900E+03  .38297901E+02  .30664101E+02 -.66584301E+01  .37148800E+02 -.69217801E+01
 -.81540899E+01  .16584400E+01 -.64771098E+00 -.35503501E+00 -.38645699E+01 -.89106697E+02
  .13662801E+03 -.15981500E+03 -.20381300E+02  .35323799E+02 -.18508801E+02 -.11615100E+02
  .18359501E+02  .46901798E+01  .49313898E+01  .44851400E-01 -.50864398E+00  .31341901E+01
  .40024899E+03 -.45440399E+02  .35721399E+03 -.26512100E+03  .33408600E+02 -.88647598E+02
 -.59285500E+02 -.10264200E+02 -.61725898E+01  .43615999E+01 -.12191700E+02 -.41268201E+01
 -.51963000E+01  .20361700E+03 -.51620300E+03 -.20040199E+03 -.27084400E+02 -.25844501E+03
  .46650799E+02 -.51223099E+02 -.16576300E+02 -.96585202E+00  .53395599E-01  .41695499E+01
  .46621499E+01 -.78402200E+01 -.75416603E+02  .21635600E+03  .23208200E+03 -.56864498E+02
 -.40050999E+02  .43362899E+01 -.41691898E+02  .87840996E+01  .10947500E+02 -.23495200E+01
  .10049300E+01 -.12888500E+00  .47184601E+01  .11683700E+03 -.17837000E+03  .35815201E+03
  .25824800E+02 -.49240898E+02  .18394199E+02  .11584100E+02 -.22775000E+02 -.55876899E+01
