foF2 for CCIR coefficients
month= 1
  .54648762E+02  .41163754E+01  .14427828E+02 -.13174432E+02 -.55630012E+01  .72903724E+01
 -.63024837E+00 -.61418171E+01 -.56469116E+01 -.10944717E+03  .17815541E+03  .63606415E+02
  .73619609E+01  .64106522E+02 -.35921407E+01 -.15911516E+02 -.52352414E+01  .14696769E+02
 -.72762308E+01  .22202393E+00 -.47575579E+01 -.41712532E+01  .11644561E+03 -.11094306E+02
 -.22673260E+03 -.28864286E+02 -.28778984E+02 -.27439203E+02  .14110433E+02  .86871843E+01
 -.75935073E+01 -.47815201E+02 -.36480937E+01  .22022610E+02 -.18813349E+02  .10188473E+03
 -.10228132E+03 -.39122402E+02  .73224983E+02  .96420273E+02  .22319057E+02 -.32373447E+02
  .63122818E+02 -.10419508E+02  .21842417E+02  .27861082E+02  .13659900E+02 -.24893921E+02
  .17436197E-01 -.93482256E-01 -.10793444E+00 -.82785124E+00 -.84534422E-01 -.26766161E-03
  .16654752E-01 -.30994598E-01 -.11604786E-01  .13113019E-01 -.68038772E-03  .19080637E-02
  .26341379E-01  .13251559E-01 -.39075937E-01  .66035584E-01  .18244600E-01 -.78173649E+00
 -.11768348E-01 -.53608539E-02 -.28954308E-01  .22645094E-01  .34665680E-02  .17233105E-01
  .14634843E-01 -.29612660E-01  .50487894E+00  .22164831E+00 -.24378799E+00 -.20211710E+00
  .94408870E-01  .48972866E+00 -.23864597E-01 -.27299476E+00 -.34467149E+00 -.14131469E+00
 -.20775779E+00 -.61760709E-01 -.61581101E-01  .99109298E+00  .17821749E+00  .82714492E+00
 -.94977480E+00 -.61216384E+00  .36868054E+00  .22957665E+00 -.12434895E+00  .49470671E-01
 -.90065990E-02 -.12500758E+00  .15639449E-01 -.57548754E-01  .26369982E+01  .56819504E+00
  .27612624E+01  .47631841E+01  .26233945E+01 -.35643736E+00 -.49008381E+00  .86467236E+00
  .32177621E+00 -.11061669E+00  .54952288E+00  .32997727E-01 -.70062482E+00  .11445436E+01
 -.10629308E+01  .18839436E+01 -.18157125E+01  .57845397E+01 -.11576208E+00  .76202619E+00
  .12073851E+01  .22669695E-01 -.58742684E+00 -.53316754E+00 -.86090755E+00  .12829594E+00
 -.12164210E+00 -.11267498E+00  .39087934E+01  .14429278E+01  .49848485E+01 -.38739047E+01
  .32264167E+00  .28122408E+01  .33922617E+01  .10338417E+01  .14853586E+01  .56888652E+00
  .14110202E+00 -.83919153E+01 -.36753819E+01 -.42955174E+01  .33921528E+01  .80299025E+01
 -.31461639E+01 -.15146472E+01  .62426537E+00  .49127710E+00  .91559422E+00  .12294981E+01
 -.11871794E+01 -.17221960E+00 -.10749143E+02  .90448103E+01 -.22625635E+02 -.52351303E+01
  .13716090E+02  .13832469E+00  .71097839E+00 -.13742865E+01 -.29770536E+01 -.49114960E+00
 -.18319700E+01  .83288515E+00  .42117639E+01 -.74518118E+01  .20720312E+02 -.12630376E+02
 -.16478216E+02 -.81918631E+01 -.70487118E+00 -.88454475E+01 -.63079481E+01 -.16885538E+01
  .26288922E+01  .37352061E+01  .57972150E+01  .16058006E+01 -.51203437E+01 -.25459335E+01
 -.16263302E+02 -.22843132E+01 -.19856344E+02  .82789288E+01 -.49226767E+00 -.64728541E+01
 -.86539011E+01 -.22938893E+01 -.35961869E+01 -.14950494E+01  .24064369E+00  .16074701E+02
  .12596722E+02  .77019687E+01 -.36065154E+01 -.19908411E+02  .71198821E+01  .27998273E+01
 -.71557932E-01 -.21365399E+01 -.29742060E+01 -.35151474E+01  .40621052E+01  .22940133E+01
  .13587055E+02 -.25019392E+02  .54193542E+02 -.97644224E+01 -.52721302E+02  .34096539E+01
  .70795673E+00 -.32761898E+01  .75477500E+01  .20922942E+01  .12183950E+01 -.31462879E+01
 -.88257313E+01  .19144426E+02 -.55912865E+02  .20548437E+02  .58517231E+02 -.10258887E+02
  .43046956E+01  .22909641E+02  .11171076E+02  .56796517E+01 -.34555607E+01 -.77860570E+01
 -.11080913E+02 -.49921546E+01  .50711031E+01  .36411526E+01  .15481095E+02  .27508340E+01
  .21559464E+02 -.52467356E+01 -.18340144E+00  .42208877E+01  .59293571E+01  .12054518E+01
  .28709695E+01  .10667130E+01 -.38529623E+00 -.73677707E+01 -.12092900E+02 -.48593478E+01
 -.27885954E+01  .14997449E+02 -.45441275E+01 -.15541584E+01 -.77496177E+00  .20404882E+01
  .22645693E+01  .28346663E+01 -.32707067E+01 -.27267530E+01 -.64316149E+01  .16303364E+02
 -.38149586E+02  .12910197E+02  .42223900E+02 -.46120896E+01 -.76996183E+00  .53413100E+01
 -.56315408E+01 -.12916849E+01  .31741199E+00  .23768795E+01  .58335042E+01 -.17753622E+02
  .41826595E+02 -.77663784E+01 -.46996094E+02  .16903778E+02 -.39931262E+01 -.17180531E+02
 -.67168846E+01 -.45003738E+01  .13160985E+01  .48622327E+01  .64542894E+01  .36038089E+01
 -.22608569E+00  .22383176E-01 -.21983469E+00  .38383201E-01  .10683271E+00 -.27958044E+00
 -.72073120E+00 -.13659807E-01 -.94429450E-02 -.40688934E-02  .14465627E-01 -.12307435E-01
  .84743900E-02  .77261634E-01  .52328423E-01 -.33979189E-01  .24548583E-01  .15614873E+00
  .68249077E+00 -.32020852E+00 -.23883097E-01  .48189063E-01 -.71453056E-02  .65714079E-02
 -.42875452E-03 -.49787788E-02  .16318841E+00  .40782076E+00 -.13131221E+00 -.78088120E-01
 -.43878067E+00 -.45414302E+00 -.18014473E+00  .51335122E-01  .92360303E-01  .70260204E-01
  .40587511E-01  .57136439E-01 -.38172573E-01 -.32295981E+00 -.36206935E-01  .54615408E+00
  .15255275E+00  .10668569E-02  .59954655E+00 -.58115119E+00 -.14064194E+00 -.59324689E-02
  .17862684E-02 -.16501710E+00 -.68641931E-01  .14574031E-01  .22033205E+01 -.42505047E+00
  .14705453E+01  .99113524E-01 -.91881233E+00  .16044205E+01  .17543232E+01  .45916408E+00
  .27655859E-02 -.15211327E+00  .62531807E-01  .22174662E+00 -.89840278E-01 -.98237640E+00
  .61098063E+00 -.93203463E-01  .24999484E+00 -.16881294E+01 -.12344166E+01  .17829297E+01
  .27928630E+00 -.16599249E-01  .71338452E-01 -.15047702E+00  .21899360E+00  .51836602E-01
  .34149855E-01 -.11778058E+01  .41532448E+00  .15049252E+00  .86920917E+00  .51964009E+00
 -.20884304E+00  .89135773E-01 -.16401221E+00 -.20817281E+00 -.11379710E+00 -.21582046E+00
  .54201890E-01  .65804678E+00  .50968669E-01 -.83104885E+00 -.68715566E+00  .75480469E-01
 -.84142131E+00  .86892831E+00  .25009820E+00 -.44691864E-01  .41970618E-01  .42782474E+00
  .50102556E-02 -.18369292E+00 -.30072832E+01  .10538676E+01 -.18198307E+01  .25968856E+00
  .99997920E+00 -.23609505E+01 -.17743442E+01 -.73138213E+00  .11850427E+00  .35192615E+00
 -.23847862E+00 -.57276577E+00  .14691012E+00  .11595041E+01 -.71592593E+00  .47009271E+00
  .22766796E+00  .25950408E+01  .12390486E+01 -.26281445E+01 -.37698337E+00 -.21818750E+00
 -.15531531E+00  .19898313E+00 -.42630187E+00 -.24251965E+00  .75564630E-01 -.15819146E-02
 -.17070128E-01  .62731862E-01  .80122404E-01 -.19053893E-01 -.75502822E-03  .20281675E+00
 -.16062942E+00 -.61040525E-02  .32858416E-01 -.53751818E-02  .11075356E-01  .84059760E-01
 -.26932992E-02  .44004388E-01 -.30800799E-01  .69791391E-02  .19021640E-01 -.30156031E-01
  .18148997E+00  .21475334E+00 -.98471157E-02 -.55861087E-02  .48251478E-02 -.33545550E-02
  .15172920E+00 -.10189057E+00  .25645059E-01 -.52431297E-01 -.31783830E-01 -.11050274E+00
  .11658212E-01 -.22356764E-02 -.46832776E+00 -.37870400E-01 -.47675385E-02 -.38657390E-01
  .74187778E-01  .38575072E-01 -.21887577E+00  .43412637E-01  .79081833E-01  .39201997E-01
  .11154532E-01 -.64383946E-01  .39611334E+00 -.98804720E-02  .39850544E-01 -.27133226E-01
  .39764389E-01 -.42043138E-01 -.27693447E-02  .97743109E-01 -.95391117E-01  .11043071E-01
  .31084713E-01 -.40372331E-02  .13213971E-01 -.24805332E-01  .15137903E-01  .56641247E-01
  .22465748E+00 -.23782956E-02  .96832955E-03  .56767887E-02  .27197039E-01  .41327935E-01
 -.92214338E-01 -.47889195E-01 -.41702380E-02 -.81137735E-02  .41315705E-01 -.75267494E-01
 -.20449100E+00  .59991553E-01 -.68433122E-02  .14528461E-01  .14191376E-01 -.28540870E-01
  .25324687E-01 -.79455242E-01 -.23113195E-01  .44245176E-01  .34820780E-01 -.90411389E-02
 -.25287878E-01  .31344430E-02  .10355319E-01 -.10612031E+00  .21018289E-01 -.77975765E-02
 -.76840571E-02  .15142566E-01 -.22948675E-01 -.47588389E-01  .11881716E-01 -.63865617E-01
  .30425686E-01 -.82677780E-02  .21936271E-01  .12532285E-01 -.44801785E-02 -.13164043E+00
 -.46902079E-01 -.13513894E-01  .16624622E-03 -.26316926E-01 -.12186967E-02  .28734948E-01
 -.22959083E-02  .10504896E-01 -.78018638E-02  .84232548E-02 -.90076961E-02 -.66834749E-02
  .13984974E-01 -.61138693E-01  .11805171E-01  .78700699E-01  .18015917E-01  .28624052E-01
 -.76267403E-02 -.46754625E-01 -.22486155E-02  .15880585E-01  .64636166E-02  .14192479E-01
 -.67947758E-03 -.35506718E-01 -.25783082E-01  .39371260E-01 -.79181977E-02 -.47959839E-02
 -.34519922E-01 -.25952054E-01 -.92375092E-02  .23945646E-01 -.36872244E-02  .38071219E-01
  .14242785E-01  .10948616E-01  .21540882E-01 -.42456158E-01  .11031417E-01  .34051068E-01
  .57469569E-01  .45886550E-01  .13773275E-01 -.64351404E-03 -.16607651E-01  .18327732E-01
 -.26219755E-02 -.77091181E-02  .13056587E-01 -.54514217E-02  .94509640E+01  .10107968E+00
  .95546111E-01  .34959659E-01 -.25399696E-01  .18447228E-01 -.18753277E-01 -.21336963E-01
  .20273574E-01 -.74352040E-02  .86263996E-02 -.19587195E-01 -.25863366E-02  .17576997E+01
 -.20958441E+00  .20107353E+00  .26883551E+00 -.69596463E+00  .10864494E+00 -.57094645E-01
 -.11880032E+00  .32511491E+00 -.73277988E-01 -.19179016E+00  .55194344E-01 -.48167195E-01
  .29966228E+02 -.28514743E+01 -.27479415E+01  .16417269E+00  .23762665E+01 -.24790712E+00
  .38372584E-01  .68017262E+00 -.64208418E+00  .19077408E+00 -.19376384E+00  .37586835E+00
  .30274448E+00 -.79763241E+01  .40185118E+01  .27582934E+01 -.44167323E+01  .16556219E+02
 -.10127513E+01 -.14381729E-01  .10526127E+01 -.36751304E+01  .16371242E+01  .41598487E+01
 -.55727178E+00  .25336441E+00 -.15115536E+03  .20107765E+02  .16070599E+02 -.69206395E+01
 -.15509940E+02 -.65745495E-01  .61048579E+00 -.44110265E+01  .59234338E+01 -.19652240E+01
  .83969170E+00 -.19654930E+01 -.22424841E+01 -.51554672E+02 -.49286880E+02 -.15149562E+02
  .23192854E+02 -.80976875E+02  .17976050E+01  .31771953E+01 -.22073929E+01  .17565590E+02
 -.79421043E+01 -.22982227E+02  .20799625E+01  .11556675E+01  .26708896E+03 -.49775471E+02
 -.31839905E+02  .28108734E+02  .37422558E+02  .36079819E+01 -.32567403E+01  .10001911E+02
 -.17851252E+02  .60564766E+01 -.76352984E+00  .37349446E+01  .60045552E+01  .22564854E+03
  .16248386E+03  .12195727E+02 -.51379269E+02  .16426907E+03  .24047847E+01 -.12291703E+02
 -.43176433E+00 -.39148830E+02  .16007685E+02  .51836742E+02 -.38026702E+01 -.54714446E+01
 -.22505075E+03  .46291023E+02  .24638092E+02 -.39034760E+02 -.37432159E+02 -.72609525E+01
  .49040074E+01 -.89484730E+01  .20959160E+02 -.69502683E+01 -.58399475E+00 -.28382370E+01
 -.64945631E+01 -.28448126E+03 -.19788374E+03  .13808954E+02  .50430801E+02 -.14956322E+03
 -.69601135E+01  .16451906E+02  .45007586E+01  .39577290E+02 -.14559423E+02 -.51503654E+02
  .33227439E+01  .67428279E+01  .75200890E+02 -.13670173E+02 -.64882298E+01  .17861347E+02
  .13128088E+02  .39957590E+01 -.23009710E+01  .26648011E+01 -.84337873E+01  .26480327E+01
  .69651747E+00  .70226914E+00  .24378769E+01  .11641260E+03  .81135353E+02 -.14079867E+02
 -.17968306E+02  .50422318E+02  .35681407E+01 -.73284221E+01 -.27828982E+01 -.14672049E+02
  .49403863E+01  .18719210E+02 -.10883954E+01 -.26159143E+01 -.12469147E-01  .13936483E+01
  .20418575E+01 -.22939935E-01  .33805318E-01  .10366076E-01  .52215006E-01 -.36718503E-01
 -.45215521E-01  .20861067E-02  .31817250E-01 -.47385283E-02 -.63512935E-02 -.79864658E-01
 -.21967115E+01  .13169786E+01 -.49137101E-01  .79261810E-01  .56432486E-01 -.11213575E-01
  .39652806E-01 -.29792653E-01  .64580184E-02 -.23676369E-02  .21759907E-01 -.17042236E-01
 -.10706547E+01  .23217793E+01  .22575028E+01 -.52305859E+00  .33758911E+00  .40237907E+00
  .70796597E+00 -.25653309E+00  .18688981E+00 -.25361739E-01  .87322198E-01  .24367884E+00
  .40593691E-01 -.15108147E+00 -.16911283E+01  .46142992E+00 -.10303918E+01  .93612778E+00
 -.41574039E-02  .11723827E+00 -.15480372E+00  .25974426E-01 -.10854245E+00 -.14955416E+00
  .20788647E+00  .12922181E+00  .45731859E+01  .24417906E+02 -.21377110E+02 -.15830410E+00
  .28918290E+01 -.90342093E+00 -.10628963E+01  .70779812E+00  .28248230E+00  .51816136E+00
 -.36014694E+00 -.21408524E+00  .44734198E+00 -.10066270E+02  .24201607E+02  .22228245E+02
  .18787283E+01  .35598913E+00 -.81920516E+00 -.45490572E+00  .21012618E+00  .17021557E+01
 -.23625430E+00 -.15785757E+00 -.44948351E+00 -.50422311E+00  .25363052E+02 -.22388357E+02
 -.88549417E+00 -.22121559E+00  .23813438E+01 -.34516559E+01 -.12210044E+02  .55636535E+01
 -.32453890E+01  .19233572E+00 -.14384518E+01 -.48079548E+01 -.13344589E+01  .43639555E+01
 -.82982798E+01  .11524791E+02  .18317818E+02 -.13572061E+02  .43871188E+01 -.21051328E+01
  .19665152E+01 -.18783900E+01  .23498127E+01  .49273577E+01 -.22936015E+01 -.35927682E+01
 -.33341885E+02 -.11396943E+03  .19362669E+03  .21216767E+01 -.21863720E+02  .87932034E+01
  .66870275E+01 -.20778825E+01  .39056785E+01 -.55137281E+01  .73257333E+00  .10095549E+01
 -.58631859E+01  .10840975E+03 -.21727190E+03 -.68914223E+02 -.21362249E+02 -.86977644E+01
  .82116756E+01  .49080110E+01  .17874566E+00 -.12050730E+02  .51833916E+00  .31218398E+01
  .36935799E+01  .80403614E+01 -.15367142E+03  .11878262E+03  .51804714E+02  .41489388E+02
 -.92071486E+01  .51096478E+01  .64470383E+02 -.44765007E+02  .16702759E+02  .28305548E+00
  .86546431E+01  .29645947E+02  .80854740E+01 -.86085339E+01  .41116173E+02 -.47850399E+02
 -.11364083E+03  .49419270E+02 -.27409758E+02  .12218876E+02 -.15123550E+02  .17315872E+02
 -.15716615E+02 -.34133495E+02  .81285315E+01  .23876568E+02  .82036057E+02  .18187785E+03
 -.55807092E+03 -.10879263E+02  .61412319E+02 -.27611139E+02 -.19147316E+02 -.71760738E+00
 -.27551128E+02  .17640097E+02 -.56628734E-01 -.14020638E+01  .21747429E+02 -.34376407E+03
  .61911011E+03  .88020509E+00  .80663330E+02  .33479347E+02 -.29412024E+02 -.12201405E+02
 -.44523087E+01  .36756096E+02  .16952411E+01 -.14172467E+02 -.11445618E+02 -.29532711E+02
  .39695712E+03 -.31497382E+03 -.28771399E+03 -.17258989E+03 -.86242542E+01  .11642606E+02
 -.14586749E+03  .13591988E+03 -.39550259E+02 -.15524077E+01 -.22016006E+02 -.76522224E+02
 -.19635256E+02 -.40375992E+02 -.67061462E+02  .28259424E+02  .29492319E+03 -.67607628E+02
  .62555237E+02 -.28627237E+02  .50263222E+02 -.52197639E+02  .39175499E+02  .90898712E+02
 -.12516282E+02 -.61318790E+02 -.77070190E+02 -.11974760E+03  .69099872E+03  .18479025E+02
 -.77280098E+02  .33186859E+02  .23168581E+02  .75805955E+01  .50765301E+02 -.22174522E+02
 -.21018499E+00  .45265010E+00 -.30652086E+02  .42491214E+03 -.73491571E+03  .15072490E+03
 -.11781620E+03 -.46392895E+02  .41384529E+02  .10866575E+02  .84837999E+01 -.48217793E+02
 -.58226829E+01  .23120079E+02  .13756743E+02  .40079506E+02 -.45912549E+03  .38094446E+03
  .50466553E+03  .24710139E+03  .43194183E+02 -.31068726E+02  .14789594E+03 -.17133975E+03
  .43186558E+02  .93547171E+00  .24350426E+02  .87021637E+02  .20689638E+02  .12518957E+03
  .21702751E+02  .59070374E+02 -.33266953E+03  .31520334E+02 -.63018490E+02  .29843792E+02
 -.66842255E+02  .62429546E+02 -.40911572E+02 -.10445173E+03  .77937250E+01  .66863708E+02
  .23716257E+02  .26841919E+02 -.31155286E+03 -.99036102E+01  .36229214E+02 -.13366703E+02
 -.94885092E+01 -.60028806E+01 -.28343119E+02  .97320232E+01 -.21416096E+00  .32326192E+00
  .14711193E+02 -.18264751E+03  .31139908E+03 -.10778705E+03  .57750397E+02  .20604429E+02
 -.19741055E+02 -.31399972E+01 -.45069757E+01  .22200363E+02  .40623951E+01 -.12418813E+02
 -.53976026E+01 -.18255381E+02  .19313271E+03 -.16603587E+03 -.27830493E+03 -.11844003E+03
 -.29174131E+02  .17652523E+02 -.55044975E+02  .75791016E+02 -.17480873E+02  .37095240E+00
 -.96177435E+01 -.35863873E+02 -.79011211E+01 -.83767059E+02  .14769975E+02 -.53073036E+02
  .13477794E+03 -.10499864E+01  .24099756E+02 -.11736702E+02  .30020025E+02 -.25523891E+02
  .15339497E+02  .43580658E+02 -.11596684E+01 -.26010187E+02 -.24157926E-01 -.34682444E+00
 -.18939769E+00 -.64226556E+00  .55502748E+00 -.18019242E-02  .22090345E-02 -.17449288E-02
 -.28906872E-01  .43518975E-01 -.22777419E-02  .19499291E-01  .26698969E-01 -.66926338E-01
 -.13376318E+00 -.66897385E-01 -.60208142E+00 -.70030004E+00 -.11302370E-01  .22896849E-01
  .18626204E-01  .16040897E-01  .18582191E-01 -.50697462E-02  .14439798E-01 -.25851393E-01
  .14338864E+00 -.20765391E+00  .20112069E-01 -.19753710E+01  .36831617E+00  .33009917E+00
 -.17354338E+00  .28955997E-02 -.41839549E+00 -.34900645E-02 -.25787419E+00  .39183505E-01
  .11534759E+00  .57123256E+00  .13649093E+00  .26264964E-01 -.47044328E+00 -.22277889E+01
  .34276772E+00  .26841480E+00 -.31208169E+00  .21924429E+00 -.73497251E-01 -.54401502E-01
  .14796602E-01 -.10233092E-01  .26954265E+01  .43012781E+01  .75683284E+01 -.86731205E+01
  .55410342E+01 -.34549928E+00 -.13151926E+01  .79660070E+00  .91225117E+00 -.41482773E+00
  .31972158E+00 -.65595812E+00 -.98114915E-01  .17693305E+01  .10319415E+01  .57046089E+01
 -.44164996E+01 -.76197057E+01  .69258058E+00 -.58791077E+00 -.44445011E+00  .10734792E+01
 -.10839008E+01  .18576832E+00 -.56307358E+00 -.81509627E-01  .19725923E+00  .28090067E+01
  .29866956E-01  .65746832E+01 -.11214927E+01 -.20306814E+01  .75946403E+00  .37662435E+00
  .41457515E+01  .45575309E+00  .18497028E+01 -.14746182E+00 -.16188048E+01 -.33737965E+01
 -.32643387E+00  .13863986E+01  .35408862E+01  .94330416E+01 -.89115310E+00 -.36629060E+00
  .16838450E+01 -.21706350E+01  .13435290E+01  .55284905E+00 -.85979074E+00 -.11613749E+01
 -.12316348E+02 -.62260933E+01 -.65586029E+02  .51939068E+02 -.18281099E+02  .18273878E+00
  .63747220E+01 -.31539521E+01 -.72625127E+01 -.33774590E+00 -.64533216E+00  .45377502E+01
 -.94161624E+00 -.12553595E+02  .13752454E+02 -.35581814E+02  .14409949E+02  .47376873E+02
 -.34375093E+01  .25728254E+01  .43016977E+01 -.10728866E+02  .57186842E+01 -.11502293E+01
  .40079656E+01  .17250158E+01 -.35611401E+01 -.97855148E+01 -.59383330E+01 -.11810492E+02
 -.76464243E+01  .37008057E+01 -.16280937E+01 -.65146512E+00 -.10992207E+02 -.11756465E+01
 -.40906601E+01 -.35428905E+00  .46568985E+01  .40749516E+01 -.54280490E+00 -.29149289E+01
 -.16286658E+01 -.16713774E+02  .47613055E+00 -.20696537E+01 -.19630735E+01  .53624787E+01
 -.44261823E+01 -.13592389E+01  .33461597E+01  .42439528E+01  .19575254E+02 -.26728251E+01
  .15306610E+03 -.97623322E+02  .11181700E+02  .33377397E+01 -.11486931E+02  .41499352E+01
  .16440626E+02  .37850554E+01 -.18400379E+00 -.10662281E+02  .31876299E+01  .31439281E+02
 -.47513309E+02  .64092300E+02 -.10152737E+02 -.89982903E+02  .79072332E+01 -.60005236E+01
 -.98099117E+01  .26642679E+02 -.94802322E+01  .32628336E+01 -.80624027E+01 -.41372290E+01
  .24437640E+01  .10388881E+02  .68885064E+01  .12287474E+02  .17508669E+02 -.15349625E+01
  .13399680E+01  .89213759E-01  .77907591E+01  .79130781E+00  .28016553E+01  .53495371E+00
 -.36855667E+01  .68383670E+00  .14101259E+00  .12219146E+01 -.87792892E+01  .14048577E+02
 -.40416885E-01  .34328499E+01  .43522057E+00 -.37442033E+01  .36730547E+01  .10144058E+01
 -.31850071E+01 -.35276761E+01 -.11864491E+02  .65092659E+01 -.10362082E+03  .60457390E+02
  .88302031E+01 -.48034701E+01  .68933558E+01 -.17215779E+01 -.11243499E+02 -.31618347E+01
  .66602868E+00  .76481528E+01 -.22676840E+01 -.26041988E+02  .39193073E+02 -.33144821E+02
 -.53187160E+01  .56564884E+02 -.62643847E+01  .45099568E+01  .61439466E+01 -.18840765E+02
  .46164675E+01 -.28137391E+01  .49374666E+01  .28067627E+01 -.25802645E+00 -.10362916E+00
 -.14398941E+00  .58753002E-01  .12338718E+00 -.46615660E+00 -.90974391E+00  .48583634E-01
 -.38379822E-01  .27855977E-01  .10477467E-02 -.31467213E-02  .46931072E-02  .13942066E+00
  .12052407E-01  .13556784E+00 -.54092322E-01  .15451413E+00  .88882434E+00 -.48357457E+00
 -.32771014E-01  .11079019E-01 -.23551969E-01 -.56003863E-02 -.15953735E-01  .25094349E-02
  .20348473E+00  .49829680E+00 -.55318739E-01 -.92830181E-01 -.18149967E+00 -.54599792E+00
 -.81165332E+00  .41849393E-01  .22468767E+00  .12768606E-01 -.45675814E-01  .34527790E-01
  .90832703E-01  .19808038E+00  .24423763E-01  .55058855E+00  .96684530E-01  .14878926E+00
  .10547436E+01 -.62313187E+00 -.34745374E+00  .50657775E-01 -.10458727E+00 -.26829256E-01
 -.22105072E-01  .96443847E-01  .31103616E+01  .71752518E+00  .43198234E+00 -.83313763E+00
 -.53591406E+00  .21094110E+01  .14961641E+01  .52341461E+00  .56767017E+00 -.88358931E-01
 -.25685966E-01 -.62317005E-02  .82329921E-01 -.23380406E+01  .12645091E+01 -.13486710E+01
  .41103089E+00 -.19716951E+01 -.13170984E+01  .23266773E+01  .89183174E-01  .99011421E+00
  .14776292E+00 -.96008055E-01  .22073543E+00  .14917379E-01  .83357550E-01 -.13930920E+01
  .16632777E+00  .31476656E+00  .29862192E+00 -.63334607E-01  .78159118E+00 -.13982970E-01
 -.37854111E+00 -.40592089E-01  .14077954E+00 -.17048199E+00 -.20473443E+00 -.39951536E+00
  .38091745E-01 -.17263715E+01 -.53047776E+00 -.42756036E-01 -.14003088E+01  .27357009E+00
  .70787126E+00 -.17673521E+00  .21879543E+00  .80344670E-01 -.11453548E+00 -.28751442E+00
 -.55554628E+01  .63528210E-01  .22511277E+00  .16389220E+01  .68950027E-01 -.38856039E+01
 -.18219573E+01 -.12218170E+01 -.72119129E+00  .12372470E-01  .60922839E-01 -.13905819E-01
 -.64103089E-01  .34650526E+01 -.16690046E+01  .22416811E+01 -.33316332E+00  .29141891E+01
  .15945005E+01 -.39390171E+01  .14417328E+00 -.18604943E+01 -.11784468E+00 -.16993752E-01
 -.41759604E+00 -.18586282E+00  .81547555E-02  .49226336E-01  .81611380E-01  .27063416E-01
  .56695234E-01  .29357160E-02  .14539907E-01  .30828521E+00 -.25350043E+00  .32837331E-01
  .15210059E-01 -.29200683E-02  .44837692E-02  .63956790E-01  .18061159E-01  .10958803E-01
 -.12470478E-01  .35997184E-02 -.25639519E-01 -.23812983E-01  .26933238E+00  .31840917E+00
 -.11766966E-02 -.27984953E-02 -.12501192E-02 -.80634849E-02  .14839776E+00 -.10045361E+00
  .11778340E-01  .67010596E-01  .10346639E+00 -.71791507E-01  .17526032E-01  .13578546E+00
 -.68693256E+00 -.82893714E-01  .53929258E-02  .23169662E-02  .82021423E-01  .72574548E-01
 -.60684308E-01 -.86023420E-01  .90452887E-01  .34990817E-01 -.15001757E+00 -.22994665E-01
  .55149466E+00  .16523851E+00 -.21080254E-01 -.10785421E-01  .24345182E-01 -.54076161E-01
 -.14327258E-01  .63852876E-01 -.25183151E-01  .29911581E-01  .37023772E-01  .14488784E-01
 -.15269484E-01 -.60717769E-01  .13028532E-01  .14004098E+00  .26168507E+00 -.16771069E-01
  .91431141E-02  .12888259E+00  .18391637E-02 -.29771950E-01 -.61108533E-01  .42996099E-02
 -.14745311E-01 -.18162554E-01  .26890339E-01 -.88421255E-01 -.26770893E+00  .11803227E+00
 -.93428353E-02  .73491614E-02  .42300075E-01 -.45630768E-01  .12768691E-01 -.31926125E-01
  .13576030E-01  .21456009E-01  .21313630E-01 -.25462057E-01 -.38112130E-01 -.38594943E-02
  .38873557E-01 -.10141932E+00  .36759213E-01  .96034087E-01  .24284810E-01 -.10095998E+00
 -.96809138E-02 -.16556034E-01  .69916975E-02 -.73311739E-01  .47385044E-01 -.22124328E-01
 -.81969174E-02  .11834413E-01 -.44802796E-01 -.12607549E+00 -.29452965E-01 -.18742386E-01
 -.76822214E-01  .27353516E-01  .59363935E-02  .14614475E-01 -.26352966E-01 -.18402827E-02
 -.14121162E-01 -.11845143E-01 -.38414609E-02 -.61304052E-02 -.21523267E-02  .61670173E-01
  .75453207E-01  .65484559E-02 -.33840731E-01  .21260999E-01 -.11356534E-01 -.17962535E-02
  .23999993E-01  .22581514E-01 -.91374582E-02 -.62641094E-03 -.11860891E-01 -.49161039E-01
 -.25092568E-01  .65070137E-01 -.17101344E-01 -.30995658E-01 -.48828226E-01 -.25985174E-01
  .12641996E-01  .94131017E-02  .50771046E-01  .10564291E-01 -.72512310E-02 -.25239275E-02
  .16289366E-01 -.34294993E-01 -.21341737E-01 -.14802243E-01  .52205998E-01  .39956391E-01
  .15908467E-01  .47674966E-02  .53186319E-02  .79527153E-02 -.18043905E-01  .74231266E-02
  .87468559E-02 -.46856818E-02
month=12
  .58184547E+01  .57026282E-01 -.92279583E-01  .19769210E-02 -.63549969E-02  .41342457E-03
 -.16677534E-01  .29840274E-02  .19395284E-01 -.31526904E-02  .83086165E-02 -.21525295E-01
 -.12466762E-02  .10098135E+01 -.13401215E+00 -.33394375E+00  .53832471E+00 -.33256578E+00
 -.14199045E+00  .17917544E+00  .53553913E-01  .36476406E+00 -.17950524E+00  .83029037E-02
  .52691005E-01 -.10528484E+00  .10512217E+02 -.11169875E+01  .69445826E-01 -.11768403E+01
  .15896691E+01 -.46408102E+00  .20050450E+00 -.11498708E+00 -.57279086E+00 -.55499069E-01
 -.22052056E+00  .46984813E+00 -.40550134E-02 -.88619490E+01  .20526533E+01  .73109612E+01
 -.79561601E+01  .10884787E+02  .16878909E+01 -.36661749E+01 -.14041631E+01 -.40023384E+01
  .28041875E+01  .11619287E+01 -.47040588E+00  .75334054E+00 -.62287876E+02  .10522943E+02
  .70986325E+00  .65067163E+01 -.11479047E+02  .16810986E+01  .92432690E+00 -.25512183E+00
  .36646883E+01 -.23676340E+00  .22571782E-01 -.15189880E+01  .11747854E+01 -.51741150E+02
 -.26478228E+02 -.41005920E+02  .41161312E+02 -.59304089E+02 -.69479570E+01  .18469704E+02
  .71893792E+01  .17059683E+02 -.13025754E+02 -.89780140E+01  .14681500E+01  .57374662E+00
  .13726009E+03 -.30932430E+02  .32160757E+01 -.12439871E+02  .30461220E+02 -.47828901E+00
 -.68936381E+01  .25059500E+01 -.91692266E+01  .18327304E+01  .26999156E+01  .10919596E+01
 -.47839508E+01  .24011169E+03  .88412567E+02  .86547073E+02 -.93710793E+02  .12796277E+03
  .12891210E+02 -.38673935E+02 -.13718104E+02 -.34361622E+02  .25967365E+02  .23587971E+02
 -.25956812E+01 -.78749733E+01 -.15224947E+03  .34043217E+02 -.10899737E+02  .94556570E+01
 -.33112156E+02 -.28386927E+01  .11093059E+02 -.39166236E+01  .96845121E+01 -.29332969E+01
 -.52627826E+01  .10346909E+01  .64608569E+01 -.31515060E+03 -.10496170E+03 -.78569519E+02
  .95572739E+02 -.12133441E+03 -.10754656E+02  .36431686E+02  .10801248E+02  .32190319E+02
 -.23463766E+02 -.25738001E+02  .27011609E+01  .12155417E+02  .65124084E+02 -.12487494E+02
  .69259715E+01 -.23780627E+01  .12499528E+02  .21069338E+01 -.53715768E+01  .17919514E+01
 -.36225002E+01  .14143248E+01  .27828605E+01 -.10895597E+01 -.28614469E+01  .13440363E+03
  .41123314E+02  .26135244E+02 -.35684414E+02  .42126480E+02  .32188382E+01 -.12763023E+02
 -.28629274E+01 -.11248033E+02  .79024072E+01  .99840336E+01 -.11786460E+01 -.55230823E+01
  .46197318E-01  .18396910E+01  .18488530E+01 -.72137311E-01 -.22965059E-01  .49167208E-01
 -.88025229E-02 -.14172700E-02  .23798384E-02  .10697533E-01 -.86828216E-03 -.11820203E-01
 -.45507951E-02 -.34407902E+00 -.19840237E+01  .18451532E+01 -.71499117E-01 -.29341163E-01
 -.38065258E-02  .12800083E-02  .35247199E-01 -.29336326E-01 -.28935510E-02  .34494635E-01
  .21810075E-01 -.35707127E-01 -.14954212E+01  .16685070E+01  .26021440E+01 -.25061376E-01
 -.11775342E+00  .18140528E+00  .39146900E+00 -.52104045E-01  .17152116E+00 -.24431722E+00
  .83082147E-01  .10321482E+00 -.50523303E-01 -.29371035E+01 -.11318460E+01  .17996328E+01
 -.12266651E+01  .44546545E+00 -.17469050E-01  .10839578E+00  .13065223E+00 -.14671960E+00
 -.17891817E-01  .82936779E-01 -.53874258E-01  .32858133E-01  .35966065E+01  .80477695E+01
  .35369372E+01 -.24907688E-01  .49452472E+01 -.24985833E+01  .10750397E+01  .63011855E-01
 -.19682705E+00  .48551191E-01 -.24114858E+00  .44627547E-01  .18766767E+00 -.88128072E+00
 -.42972250E+01  .32859540E+01  .79657030E+00  .30905221E+01  .28533407E-01 -.50964916E+00
 -.72284162E+00  .72344583E+00 -.41555965E+00 -.27640814E+00 -.11061145E+01 -.24223343E+00
  .26371164E+02 -.15519336E+02 -.16091349E+02 -.61467066E+01  .11827186E+02 -.18683293E+01
 -.10109256E+02 -.41066775E+00 -.26999030E+01  .11567605E+01 -.66600841E+00 -.19529312E+01
  .17002130E+00  .52747944E+02 -.59905577E+01 -.19065035E+02  .19325472E+02 -.37808802E+01
  .25225880E+01 -.50770384E+00 -.24967103E+01  .18975933E+01  .15414751E+01  .46599278E+00
  .26762016E+01 -.23129797E+01 -.29581635E+02 -.67340530E+02  .28578785E+02 -.18400334E+01
 -.45590832E+02  .19642672E+02 -.11388482E+02 -.14384048E+01  .23746016E+01 -.25869813E+01
  .12232533E+01 -.22738206E+00 -.13948896E+01  .25422518E+02 -.24761131E+02 -.18647612E+02
 -.35908456E+01 -.27576843E+02  .63180453E+00  .12264181E+01  .73593297E+01 -.56782942E+01
  .42023597E+01  .94908339E+00  .99610100E+01  .74102955E+01 -.13301099E+03  .29004534E+02
  .96729050E+02  .52969921E+02 -.57015465E+02  .43563184E+00  .61022591E+02 -.60143486E-01
  .14871103E+02  .36482079E+01  .28649278E+01  .86638842E+01 -.38194208E+01 -.28812784E+03
  .46469360E+02  .46227028E+02 -.10875103E+03 -.70202547E+00 -.15389410E+02  .14878047E+01
  .11239145E+02 -.60284505E+01 -.76406474E+01 -.82917614E+01 -.18456877E+02  .17502781E+02
  .90780693E+02  .17434750E+03 -.17242982E+03  .74431643E+01  .14255406E+03 -.58141239E+02
  .39145481E+02  .34620700E+01 -.12430976E+02  .10840864E+02 -.43649893E-01  .59502614E+00
  .22078130E+01 -.10493085E+03  .18064041E+03  .12570059E+02  .93478651E+01  .80625313E+02
 -.71573341E+00  .36804316E+01 -.22530621E+02  .18506762E+02 -.12973786E+02 -.15200819E+01
 -.31336435E+02 -.28821770E+02  .29102225E+03 -.17519779E+02 -.29855066E+03 -.15717355E+03
  .88891266E+02  .25252760E+02 -.15087781E+03  .76023388E+01 -.37483158E+02 -.23462997E+02
 -.69535480E+01 -.14723260E+02  .18481215E+02  .65221857E+03 -.11774996E+03 -.61445259E+02
  .26809067E+03  .39994270E+02  .31199490E+02 -.64933023E+01 -.18023020E+02  .64583664E+01
  .12623926E+02  .27021164E+02  .45272427E+02 -.46571915E+02 -.11661732E+03 -.21271246E+03
  .27106604E+03 -.73082743E+01 -.18257878E+03  .73000687E+02 -.54757523E+02 -.16007291E+01
  .22605629E+02 -.14365945E+02 -.50904427E+01 -.98563862E+00  .61151135E+00  .15628786E+03
 -.29974231E+03  .10640742E+02 -.10775609E+02 -.95066597E+02 -.36515400E+01 -.11473594E+02
  .27438049E+02 -.24867657E+02  .15603787E+02  .12937165E+01  .39795895E+02  .39510033E+02
 -.29016135E+03  .28823552E+01  .39856253E+03  .19402602E+03 -.45091358E+02 -.53616600E+02
  .16660764E+03 -.15165432E+02  .42398968E+02  .36244057E+02  .75232472E+01  .95507259E+01
 -.28676901E+02 -.64159644E+03  .12781446E+03  .57046253E+02 -.29240646E+03 -.71489204E+02
 -.24908293E+02  .13778471E+02  .10944452E+02 -.66494685E+00 -.74688768E+01 -.32826694E+02
 -.46453716E+02  .50829025E+02  .52968678E+02  .99466309E+02 -.13427261E+03  .10737036E+01
  .81903267E+02 -.32730850E+02  .26825422E+02 -.69327599E+00 -.12845870E+02  .59912968E+01
  .45008116E+01  .76359075E+00 -.18522654E+01 -.80060036E+02  .15137988E+03 -.81274099E+01
  .41646919E+01  .38812267E+02  .42529483E+01  .73921485E+01 -.11849991E+02  .11516630E+02
 -.64914269E+01 -.51537508E+00 -.17529142E+02 -.18062862E+02  .10677107E+03  .52536047E+00
 -.18758054E+03 -.85391640E+02  .35786375E+00  .30250124E+02 -.67851509E+02  .84298773E+01
 -.17312014E+02 -.17777069E+02 -.27602580E+01 -.14503179E+01  .14062240E+02  .22694662E+03
 -.50785789E+02 -.25865499E+02  .11572225E+03  .35236393E+02  .62496061E+01 -.90702009E+01
 -.16877418E+01 -.16750354E+01  .10357891E+01  .13722246E+02  .17021441E+02 -.19445263E+02
 -.39433226E-01 -.21142434E+00 -.90724351E-02 -.83350813E+00 -.50699193E-01  .27291071E-01
 -.22223895E-01 -.42128101E-01  .17714037E-01  .50699499E-01 -.18712536E-01 -.25406671E-02
  .20049296E-01 -.49931601E-01 -.20490995E-01  .89790568E-01  .51811721E-01 -.87662053E+00
 -.31257950E-01  .40552104E-02 -.14721376E-01 -.69894153E-02 -.72437213E-02  .23188520E-01
  .26874652E-01 -.39877024E-01 -.24794403E+00 -.22231767E+00  .30068848E+00  .26426491E+00
  .85828662E+00  .70318051E-01 -.19365221E+00 -.67670614E-01 -.44199413E+00 -.11491100E+00
 -.18138404E+00  .90832114E-02  .69318730E-02  .56248826E+00  .47823495E+00  .41573855E+00
 -.15119501E+01  .67963108E-01 -.13004091E+00  .64840436E-01 -.91815062E-01 -.15601902E+00
 -.78684457E-01 -.90477422E-01  .76826736E-01 -.65387972E-01  .36128531E+01  .25138476E+01
  .35854378E+00  .26517680E+01  .23037329E+01 -.11147920E+01 -.63770419E+00  .86852974E+00
 -.41232476E+00 -.61307818E+00  .48212731E+00 -.85765906E-01 -.57749569E+00  .26269414E+01
 -.84287786E+00  .11433274E+01 -.36928189E+01  .54051328E+01  .74675167E+00 -.73716521E+00
 -.66338859E-01  .11560968E+01 -.29391345E+00  .12733983E+00 -.10972694E+01  .59222382E+00
  .34999065E+01  .44444332E+01 -.94481927E+00 -.35326798E+01 -.27436817E+01  .56982708E+00
  .76956093E-01  .31902781E+00  .52106791E+01  .92866051E+00  .87636429E+00 -.33926579E+00
 -.11445959E+01 -.32386551E+01 -.44973121E+01 -.15676627E+01  .10158686E+02  .16184865E+00
  .16182853E+01 -.21049386E+00 -.28675810E+00  .18338075E+01  .79065192E+00  .12128632E+01
 -.13835089E+01 -.13644750E-01 -.20781824E+02  .17002146E+01 -.11406075E+02  .90912104E+01
  .13688050E+02  .40151911E+01  .44199939E+01 -.25502865E+01  .19699675E+01  .12704998E+01
 -.20803688E+01  .20040412E+01  .38943079E+01 -.19840212E+02  .19784559E+02 -.86485300E+01
 -.49333057E+01 -.39710078E+01 -.40674076E+01  .28137231E+01  .38876519E+01 -.90402203E+01
  .19475243E+01 -.10716799E+01  .62051377E+01 -.18414352E+01 -.83312187E+01 -.13289580E+02
 -.21736004E+01  .84501009E+01  .49111623E+00 -.37395916E+01  .19115800E+01 -.31825442E-01
 -.13818623E+02 -.18343798E+01 -.11181920E+01  .80240744E+00  .43642979E+01  .33570621E+01
  .12437586E+02  .45811825E+01 -.16603785E+02  .22749797E+00 -.40944519E+01 -.53237623E+00
  .23649323E+01 -.41487670E+01 -.17448484E+01 -.36165752E+01  .43271375E+01  .10559268E+01
  .39056721E+02 -.16090925E+02  .33891582E+02 -.35210060E+02 -.50438084E+02 -.49294519E+01
 -.90522985E+01  .19701451E+01 -.41518726E+01 -.19429389E+00  .29413283E+01 -.64302468E+01
 -.75884628E+01  .49585617E+02 -.54486115E+02  .14613009E+02  .31883018E+02 -.19175348E+02
  .78750353E+01 -.41738634E+01 -.11004765E+02  .19877577E+02 -.26470742E+01  .21634009E+01
 -.10771996E+02  .26160250E+01  .42416420E+01  .10615758E+02  .38284779E+01 -.26582880E+01
  .61848521E+01  .39846966E+01 -.23324945E+01 -.27493325E+00  .98930330E+01  .91430855E+00
  .42881787E+00 -.45336172E+00 -.38754070E+01  .24860692E+01 -.11103155E+02 -.55986371E+01
  .30626101E+01  .12912285E+01  .31475737E+01  .94185495E+00 -.24471550E+01  .26365435E+01
  .11146898E+01  .30409727E+01 -.34792864E+01 -.11173528E+01 -.24813002E+02  .12293331E+02
 -.24448631E+02  .25972631E+02  .41211086E+02  .13715389E+01  .59663386E+01 -.71985565E-01
  .29825644E+01 -.41931197E+00 -.13509990E+01  .51593585E+01  .43710918E+01 -.40055676E+02
  .40998569E+02 -.62064977E+01 -.28469564E+02  .22959063E+02 -.49932976E+01  .19243966E+01
  .76674228E+01 -.12809522E+02  .61497426E+00 -.14364127E+01  .57304015E+01 -.13400351E+01
 -.21295029E+00 -.11400111E+00 -.14825793E+00  .73622167E-01  .64809799E-01 -.29826677E+00
 -.60644531E+00 -.13423300E-01  .10754849E-01  .98052928E-02 -.27152034E-02 -.18311009E-01
  .64233560E-02 -.17358117E-01  .90460531E-01 -.55983938E-01 -.37680583E-02  .10464080E+00
  .60645211E+00 -.32411680E+00 -.19527392E-01  .57433560E-01 -.14313875E-01  .14264600E-01
 -.12788296E-01  .12462892E-01  .72629385E-01  .26425889E+00 -.72310239E-01  .14027588E+00
 -.22800760E+00 -.82698578E+00 -.59944493E+00  .41647565E-01  .10132376E+00  .10920782E+00
 -.92539199E-01  .54342560E-01  .23273788E-01 -.79490080E-01 -.41849073E-01  .11703408E+00
  .22500435E+00  .79866000E-01  .79547960E+00 -.68940187E+00 -.91365695E-01  .26474411E-01
  .18633839E-01 -.69830693E-01  .42015348E-01  .70129666E-02  .20651813E+01  .10757015E+01
  .79591483E+00 -.10709344E+01 -.39959523E+00  .12449454E+01  .65018201E+00  .57454801E+00
 -.10787249E+00 -.11827233E+00  .89393541E-01  .38926962E+00  .20278770E-01 -.84885859E+00
  .50201148E-01  .41724554E+00  .10930062E+00 -.19860852E+01 -.40959150E+00  .14579872E+01
  .10777475E+00  .18702917E+00  .58261953E-01 -.15377997E+00  .27000561E+00 -.32803483E-01
  .41750300E+00 -.89985055E+00  .11675125E+00  .33188917E-01  .56400406E+00  .12467124E+01
  .11199267E+01 -.13293042E-01 -.56087691E-01 -.28695667E+00  .14087245E+00 -.16224995E+00
 -.25811439E-01  .51898807E+00  .17738798E+00 -.20662893E+00 -.74402368E+00 -.51481444E-02
 -.16159158E+01  .10972348E+01  .44918299E-01 -.20699680E+00 -.11631241E-01  .20945829E+00
 -.16005199E+00 -.11305244E+00 -.41412516E+01 -.14561827E+01 -.11091294E+01  .17685617E+01
  .66921726E-01 -.16768461E+01  .23649102E+00 -.10593188E+01  .12860224E+00  .10053816E+00
 -.29987153E+00 -.75887215E+00  .55327028E-01  .18062499E+01  .15113790E+00 -.36903124E-01
  .28656241E+00  .33028457E+01 -.43000472E+00 -.17351264E+01 -.96321538E-01 -.62929440E+00
 -.54888729E-01  .19858766E+00 -.39517486E+00 -.23517720E-01  .74075319E-01  .55286419E-01
  .37950136E-01  .51930591E-01  .40860217E-01 -.80779605E-02 -.85725710E-02  .18911599E+00
 -.20170498E+00  .79165362E-02  .14078501E-01 -.48967579E-03  .23352634E-01  .89454815E-01
  .45219730E-02  .19925095E-01 -.36571357E-01  .47071730E-02 -.22226086E-01  .12251129E-01
  .23481011E+00  .19869676E+00 -.52124937E-02 -.27196895E-01  .11811548E-01  .11335119E-01
  .20631571E+00 -.40896397E-01 -.66134058E-01 -.51769245E-01  .11315651E+00 -.29828817E-01
 -.70822775E-01 -.71775697E-01 -.42620286E+00 -.58472637E-01 -.11232210E-01 -.11249758E-01
  .20316774E-01  .17420188E-01 -.14574118E+00 -.10202885E+00  .72233804E-01  .11322710E-01
 -.20416332E-01 -.24119224E-02  .33355662E+00 -.65747298E-01 -.34695771E-02 -.40769741E-01
  .66911601E-01 -.37780598E-01  .43868117E-01  .14381094E+00 -.61921760E-01 -.12998655E-01
  .31560201E-01  .31114614E-02  .38460427E-03 -.28693313E-01  .34101967E-01  .90243541E-01
  .18531391E+00 -.13973088E-01  .10807765E-01  .87856062E-01  .35964802E-01  .23326818E-01
 -.84922142E-01 -.19689238E-01  .94046239E-02  .14910233E-02  .26861502E-01 -.73656917E-01
 -.17092833E+00  .78958347E-01  .87024560E-02  .12014929E-01  .82137790E-02 -.21466317E-01
  .53214632E-01 -.74789733E-01  .19152010E-01  .21119365E-01  .25541725E-01  .88134193E-03
 -.14540546E-01  .78659160E-02  .15383034E-01 -.64573243E-01  .21328626E-01  .28671172E-01
  .20090416E-01 -.94851188E-01 -.24305644E-01 -.72831862E-01 -.18191807E-01 -.27933948E-01
  .21245508E-01 -.38015399E-01  .13354952E-01  .61733294E-02  .53486866E-02 -.67182191E-01
  .49329074E-02  .14485019E-01 -.57947930E-01 -.16713040E-01  .52156760E-02  .26821878E-01
 -.57450021E-02 -.63059921E-02 -.14616561E-01 -.94541983E-03 -.15653398E-01 -.63756146E-02
  .19463092E-02  .91823868E-01  .34876380E-01 -.81078401E-02  .40082082E-01  .11814686E-01
 -.21329770E-01  .22458943E-01  .65466752E-02  .32364109E-02 -.13744369E-01  .66302335E-02
  .16155703E-01 -.14738605E-01  .45109168E-01  .52861501E-01 -.88001676E-01  .24178792E-01
 -.26224427E-01 -.27569726E-01  .28009566E-02 -.12213375E-01 -.14918844E-02  .38230043E-01
 -.10143310E-01  .97960318E-02  .72819595E-02 -.12117780E+00  .23717243E-01 -.16449519E-01
  .21570392E-01 -.11265770E-02  .23510955E-01  .17620742E-01 -.14561802E-01  .44145947E-02
 -.19181985E-01  .15150580E-01  .23060735E-01 -.34930815E-02  .85668230E+01  .58971167E-01
 -.37359368E-01  .98172938E-02  .60634520E-02 -.19980328E-01 -.32437317E-01  .73017133E-02
  .21622822E-01 -.31204394E-02  .86839320E-02 -.15189710E-01  .15739938E-02  .15422637E+01
 -.45887977E+00 -.63496363E+00  .17954226E+00 -.36354399E+00 -.81500508E-01  .53280354E-02
  .13243176E+00  .38387778E+00 -.11102082E+00 -.78610070E-01  .94472535E-01 -.58259502E-01
  .24310478E+02 -.11059129E+01 -.73916429E+00 -.92551416E+00  .17832867E+01  .35105866E+00
  .37704727E+00 -.31123802E+00 -.53970361E+00  .86808130E-02 -.72665714E-01  .46467739E+00
 -.98924175E-01  .20755560E+02  .67352271E+01  .14065329E+02 -.25990703E+01  .10409377E+02
  .16016326E+01 -.47564006E+00 -.34755881E+01 -.49684529E+01  .15748028E+01  .26321311E+01
 -.12655041E+01  .15727635E+00 -.12931139E+03  .12252737E+02  .60598216E+01  .50476084E+01
 -.11773267E+02 -.44770451E+01  .58385706E+00  .23724539E+01  .37232220E+01 -.10170100E+01
 -.81260860E-01 -.29869399E+01  .22409637E+01 -.23669112E+03 -.51905823E+02 -.72058388E+02
  .12511720E+02 -.56770985E+02 -.10931893E+02  .33293872E+01  .20718521E+02  .24318001E+02
 -.57881889E+01 -.15459871E+02  .46247511E+01  .34875414E+01  .24901990E+03 -.39882587E+02
 -.83957405E+01 -.10404231E+02  .27809801E+02  .16726303E+02 -.68507929E+01 -.69119287E+01
 -.97388630E+01  .47765851E+01  .10716473E+01  .72030778E+01 -.82405844E+01  .65161255E+03
  .14923309E+03  .14101414E+03 -.29154610E+02  .12519636E+03  .29351564E+02 -.84194260E+01
 -.48260624E+02 -.53140247E+02  .90673313E+01  .35299232E+02 -.72856536E+01 -.14410471E+02
 -.23240266E+03  .45167839E+02 -.96814609E+00  .99426565E+01 -.26336691E+02 -.23381853E+02
  .11163598E+02  .86249838E+01  .10363331E+02 -.69799457E+01 -.19014369E+01 -.71312876E+01
  .10706991E+02 -.70311969E+03 -.17120168E+03 -.11967138E+03  .32664330E+02 -.12050853E+03
 -.33125164E+02  .86441698E+01  .48691650E+02  .51921913E+02 -.65182595E+01 -.34950245E+02
  .55114870E+01  .18803883E+02  .85038689E+02 -.16290758E+02  .40023508E+01 -.37510371E+01
  .83846464E+01  .10919796E+02 -.52057095E+01 -.38280959E+01 -.38365119E+01  .32329717E+01
  .99229783E+00  .24394760E+01 -.46375208E+01  .26612119E+03  .67721451E+02  .37346931E+02
 -.13712145E+02  .41968533E+02  .13200320E+02 -.30124371E+01 -.17847170E+02 -.18521818E+02
  .17858783E+01  .12569484E+02 -.17031460E+01 -.80002708E+01 -.13380323E+00  .13366905E+01
  .19891349E+01 -.10753992E-01  .60303465E-01  .12918176E-01  .21262079E-01 -.86736670E-02
 -.13964107E-01  .11481033E-01  .10142981E-01  .72076609E-02 -.85020000E-02 -.14243269E-01
 -.21352170E+01  .13255059E+01 -.50178140E-01 -.54384332E-01  .46576776E-01  .34636784E-01
  .48959581E-02 -.16821539E-01  .46431450E-02  .12051069E-01  .19954726E-01 -.32330859E-01
 -.12649829E+01  .14815663E+01  .32681105E+01 -.28774256E+00  .42832842E+00  .53366369E+00
  .69917524E+00 -.12640499E+00  .27914149E+00 -.86231783E-01  .41828956E-01  .22610457E+00
 -.11857753E+00 -.59289956E+00 -.26590748E+01  .71710646E+00 -.80467069E+00  .91069084E+00
  .17542487E+00  .10409196E+00 -.57189096E-01  .43423325E-01 -.84960863E-01 -.95633030E-01
  .33903427E-01 -.36507253E-01  .83079939E+01  .22010695E+02 -.11524426E+02 -.11183747E+00
  .25016727E+01 -.13266138E+01  .22817475E+00  .46875328E+00  .34386232E+00  .40068373E+00
 -.31280607E+00 -.36988363E+00  .16799913E+00 -.83424854E+01  .11889293E+02  .16917753E+02
  .39813349E+00  .21293635E+01 -.16580629E+00 -.91171312E+00 -.19491872E-01  .62579691E+00
 -.31269863E+00 -.14522402E+00 -.69244891E+00 -.35517260E+00  .23320499E+02  .19454935E+01
 -.32308598E+02 -.22719015E+00 -.26350052E+01 -.75710702E+01 -.13849431E+02  .13357112E+01
 -.52987838E+01 -.12208439E+01  .56600362E+00 -.38908503E+01  .15157390E+01  .16239506E+02
  .26882658E+02  .11697211E+02  .13142451E+02 -.13128713E+02  .12815480E+01 -.26485260E+01
  .10252703E+01 -.71769845E+00  .26684380E+01  .33325875E+01  .19368446E+00 -.84864259E+00
 -.65441597E+02 -.12118098E+03  .10928064E+03 -.38240664E+01 -.23437611E+02  .10801532E+02
 -.57041907E+01 -.27291288E+01 -.15678360E+01 -.73939705E+01  .37768626E+00  .33962661E+00
 -.93000346E+00  .93348366E+02 -.10296486E+03 -.70953484E+02 -.35590756E+00 -.17237810E+02
  .94308928E-01  .38772573E+01  .26037455E+01 -.46013031E+01  .14253412E+01  .20683482E+01
  .66785064E+01  .57986798E+01 -.11509790E+03 -.40946972E+02  .20788942E+03  .28071583E+02
  .24814009E+02  .32777500E+02  .80104485E+02 -.11489333E+02  .29405239E+02  .16883720E+02
 -.67208629E+01  .20167179E+02 -.86552134E+01 -.99561401E+02 -.15522029E+03 -.83673119E+02
 -.80494240E+02  .58310280E+02 -.12448787E+02  .17183468E+02 -.89103432E+01  .53705993E+01
 -.13733029E+02 -.22880346E+02 -.23245771E+01  .86334391E+01  .17955624E+03  .24499542E+03
 -.33905200E+03  .16499292E+02  .74469521E+02 -.33439671E+02  .23443146E+02  .36955311E+01
 -.19126467E+00  .27561241E+02  .56984258E+01  .44640994E+01  .42115948E+00 -.30066257E+03
  .29662677E+03  .81036797E+02 -.27805751E-01  .43939407E+02  .27983515E+01 -.60298963E+01
 -.10772778E+02  .15233603E+02 -.58941257E+00 -.87549534E+01 -.21512072E+02 -.19019287E+02
  .25668509E+03  .95829292E+02 -.60892999E+03 -.11896391E+03 -.95018211E+02 -.59214664E+02
 -.19752924E+03  .38122326E+02 -.69384659E+02 -.56728775E+02  .22776094E+02 -.43739372E+02
  .22105671E+02  .22645404E+03  .37045316E+03  .17037305E+03  .21269356E+03 -.11409074E+03
  .32559406E+02 -.47628788E+02  .30940620E+02 -.16595905E+02  .25164560E+02  .59392143E+02
  .48828721E+01 -.25786682E+02 -.19930544E+03 -.22929100E+03  .46098517E+03 -.23051142E+02
 -.99358971E+02  .43438587E+02 -.36220837E+02  .10952334E+01  .52028384E+01 -.36286861E+02
 -.15389333E+02 -.10731897E+02  .32523794E+01  .36962787E+03 -.36779376E+03 -.39542665E+01
 -.51138026E+00 -.43776108E+02 -.79711537E+01  .35742667E+01  .16140493E+02 -.21209721E+02
 -.38114672E+01  .13219823E+02  .27240120E+02  .23259232E+02 -.26610751E+03 -.69780022E+02
  .81476440E+03  .17288275E+03  .13693073E+03  .46457741E+02  .21848393E+03 -.50798950E+02
  .72315247E+02  .74823509E+02 -.31317858E+02  .41232723E+02 -.24342669E+02 -.20460796E+03
 -.41652859E+03 -.12226570E+03 -.24583488E+03  .10287257E+03 -.36260227E+02  .59697350E+02
 -.42112240E+02  .20332176E+02 -.18127941E+02 -.65813667E+02 -.29394605E+01  .30914236E+02
  .77954071E+02  .84637459E+02 -.22712357E+03  .10199258E+02  .47287090E+02 -.19806787E+02
  .19231525E+02 -.30108089E+01 -.38124545E+01  .15798557E+02  .10139494E+02  .67266974E+01
 -.32354667E+01 -.15642979E+03  .16548746E+03 -.24017456E+02  .17524619E+00  .14203983E+02
  .56363974E+01 -.46004727E+00 -.83661394E+01  .10115620E+02  .35576582E+01 -.64790511E+01
 -.11826178E+02 -.96805029E+01  .10178647E+03  .11225664E+02 -.39543839E+03 -.84101158E+02
 -.65480934E+02 -.12942045E+02 -.88712402E+02  .23320219E+02 -.27256401E+02 -.34397594E+02
  .15014293E+02 -.13734141E+02  .94665308E+01  .60337921E+02  .17995731E+03  .21066154E+02
  .10197303E+03 -.35869064E+02  .15114552E+02 -.27445204E+02  .19399147E+02 -.83749247E+01
  .40309701E+01  .26498037E+02 -.13782138E-01 -.13060990E+02 -.10923450E-01 -.34306777E+00
 -.50401580E-01 -.53487873E+00  .29230735E+00  .21476945E-01  .15144962E-01 -.43948866E-01
 -.17394183E-01  .35130534E-01 -.16292399E-01  .19373259E-01 -.59662841E-03 -.71579292E-01
 -.52842975E-01 -.63118017E-02 -.39636707E+00 -.73986316E+00  .37425831E-02  .59765220E-01
 -.49656001E-02 -.27551942E-02 -.15596611E-01  .61703688E-02  .14522821E-01 -.32979961E-01
 -.84795365E-02  .16810315E-02 -.11047077E+00 -.18073316E+01  .75538784E+00  .17500804E+00
 -.17733023E+00 -.16572930E+00 -.33800668E+00 -.15694118E+00 -.16335554E+00  .71416780E-01
 -.57195537E-01  .38296199E+00  .77749258E+00 -.32756321E-01 -.16789720E+01 -.18577409E+01
  .17541359E+00 -.14601539E-01  .33322370E-02  .29737124E-01 -.87182283E-01 -.31497914E-01
  .12684086E-01 -.11295188E-01  .23203259E+01  .53199558E+01  .16164668E+01 -.67294297E+01
  .70609212E+01 -.22695801E+00 -.15492889E+01  .11764526E+01  .21189202E+00 -.77632385E+00
  .94330877E-01 -.52504992E+00  .80921426E-01  .32638378E+01 -.18616734E+00  .25722713E+01
 -.63221359E+01 -.21414373E+01  .87206262E+00 -.12179786E+01  .13763864E+00  .67562330E+00
 -.19984256E+00  .40309739E+00 -.78906333E+00  .50545210E+00  .94253534E+00  .12683750E+01
  .62755954E+00  .30156040E+01  .10006471E+01  .20007719E+00  .20150837E+00  .14695404E+01
  .41846933E+01  .12572116E+01  .65958399E+00 -.71903503E+00 -.69292152E+00 -.96949637E+00
 -.45164165E+01  .29109006E+01  .85274162E+01  .41857915E+01 -.27851805E+00  .91058570E+00
 -.63607663E+00 -.55645533E-01  .10949482E+01  .38305825E+00 -.72221696E+00 -.53886342E+00
 -.11483660E+02 -.18448805E+02 -.25420233E+02  .41966877E+02 -.18985962E+02 -.14435639E+01
