foF2 daily coefficients   9 sets of coefficients
1st set of coefficients
0.713743E-02 0.220530E-02 -.587619E-02 -.804284E-01 -.277894E-02 0.733758E-01
0.284620E-01 -.508839E-02 -.751085E-02 -.918375E-02 0.419229E-01 -.293340E-02
-.125812E-01 0.309432E-02 0.167988E-02 0.519287E-02 0.508373E-04 0.250425E-03
-.136034E-04 -.168935E-03 -.548586E-03 -.374658E-03 0.464919E-03 -.274921E-03
0.205533E-03 -.395699E-04 -.159484E-03 -.235367E-04 -.791632E-04 0.266637E-04
0.129421E-03 0.145412E-03 0.443559E-03 -.287482E-03 -.439448E-03 -.333042E-03
-.171895E-03 -.263335E-03 0.144480E-03 -.419745E-04 0.574438E-04 0.136949E-05
-.135001E-03 0.256386E-03 -.439215E-03 -.672826E-03 0.260129E-04 0.442492E-03
-.253558E-03 0.473705E-03 -.834781E-03 -.288564E-03 0.189254E-03 -.670775E-04
0.429258E-04 -.115085E-04 0.614655E-03 0.687602E-03 -.167907E-03 -.864090E-03
0.294674E-03 0.502789E-03 0.720425E-03 0.563597E-03 -.192444E-03 -.242431E-03
0.260875E-04 -.279438E-03 -.832468E-03 -.198606E-02 0.147922E-02 0.402798E-02
0.282488E-02 -.125190E-02 -.607147E-03 0.309771E-02 -.783394E-03 0.445134E-03
0.133593E-03 0.214255E-03 0.966608E-03 -.416060E-04 -.301325E-02 -.126125E-02
-.266255E-02 0.561573E-02 0.335118E-03 -.143874E-02 0.599306E-03 0.365002E-02
-.119563E-03 0.470558E-03 -.672738E-03 -.327557E-03 0.968334E-04 -.637293E-03
-.257728E-03 0.845724E-03 -.366390E-03 -.201492E-02 0.533887E-03 -.692878E-03
0.108949E-02 0.466393E-03 -.175956E-03 0.220335E-04 0.783381E-04 -.327718E-05
-.713755E-04 -.120619E-02 0.683805E-03 0.132506E-02 -.629655E-03 -.215574E-02
-.922922E-03 -.779578E-03 0.158353E-03 0.343292E-03 -.179436E-03 0.390441E-03
0.142288E-02 0.279623E-02 -.234478E-02 -.700932E-02 -.390374E-02 0.418614E-02
-.980581E-03 -.513944E-02 0.845286E-03 -.452878E-03 0.524287E-03 -.146700E-03
-.155078E-02 0.231062E-03 0.474336E-02 0.167820E-02 0.395471E-02 -.945210E-02
0.134567E-02 0.443196E-02 -.583307E-03 -.612275E-02 -.518243E-03 -.485110E-03
0.111377E-02 0.678730E-03 -.195610E-04 0.398917E-04 0.192591E-04 -.179983E-04
0.120225E-03 0.228831E-04 -.130782E-03 0.175021E-03 0.130607E-03 -.145898E-03
0.225211E-05 -.517396E-04 -.541362E-04 -.609015E-06 -.471306E-04 -.151290E-04
-.143221E-03 -.264595E-04 0.883509E-04 -.147864E-05 -.112158E-03 0.138591E-03
0.620053E-05 -.145350E-03 0.405379E-04 -.296985E-04 0.656327E-04 -.955545E-04
0.177272E-05 -.599212E-04 -.120017E-03 -.199514E-03 -.232245E-03 0.489076E-03
0.301309E-03 -.261155E-04 0.448671E-04 0.245335E-03 0.416267E-04 -.513434E-04
-.363596E-04 0.141504E-04 0.180526E-03 -.293998E-04 0.168561E-03 -.238782E-03
-.241268E-03 0.487114E-03 -.379966E-04 -.941061E-05 -.632884E-04 0.251708E-03
0.270646E-04 0.275478E-04 -.151120E-04 -.327184E-05 -.261424E-04 -.684329E-04
0.435673E-04 0.130463E-03 0.801823E-04 0.101831E-03 -.278660E-03 0.825160E-04
0.176591E-03 -.161937E-05 -.192417E-04 -.321286E-04 0.557284E-04 -.273520E-04
-.292464E-04 -.564616E-04 -.778891E-04 0.125050E-03 0.275036E-03 0.782201E-04
-.174478E-03 0.786146E-04 0.390391E-04 -.223504E-05 0.815273E-05 -.522765E-05
-.174494E-04 -.455624E-04 -.598737E-06 0.169525E-04 -.341029E-04 0.136057E-03
-.472203E-05 -.226520E-03 -.464851E-04 0.711687E-05 0.109323E-05 0.337179E-04
-.292178E-04 -.301180E-04 -.108398E-04 -.548393E-04 0.603894E-04 0.226706E-04
0.220590E-07 0.148899E-03 0.394248E-04 -.232061E-03 -.213111E-04 0.649464E-04
0.393896E-04 0.296944E-04 -.275219E-04 0.717160E-05 0.168196E-04 0.333355E-04
0.605504E-04 -.109159E-03 0.113786E-04 -.131210E-04 -.904933E-04 -.201932E-04
0.565923E-04 -.222210E-04 0.210084E-04 0.773235E-05 -.457797E-04 0.442732E-05
-.660306E-04 0.181212E-04 -.902884E-05 -.106227E-03 0.852665E-04 -.192608E-04
-.748456E-05 0.114749E-04 0.196010E-04 -.111053E-04 -.128274E-04 -.210610E-04
0.864785E-05 0.352014E-04 -.642711E-05 -.244758E-04 0.240509E-04 0.102843E-03
-.390068E-05 -.143319E-05 -.648356E-05 -.149248E-04 0.323705E-05 -.292567E-04
0.853660E-05 -.177889E-04 -.234597E-05 0.118346E-04 -.191462E-04 -.175537E-04
-.104652E-04 0.131807E-03
8th set of coefficients
-.322420E-01 0.100466E+00 0.166872E-01 0.181855E-01 0.534465E-01 -.106406E-02
-.448606E-02 0.691077E-02 0.113688E-01 0.109297E-01 -.143732E-02 -.416004E-02
-.555029E-02 -.948853E-01 0.309330E+00 0.461856E+00 0.260057E-01 -.211792E+00
-.633586E-01 -.286307E-01 -.205584E-01 0.669513E-01 0.121313E-01 0.138105E-01
-.432003E-01 0.135337E-01 0.235933E+01 -.617378E+00 -.178540E-01 -.273133E+00
-.393724E+00 -.190027E+00 0.136351E+00 -.779480E-01 -.134519E+00 -.152479E+00
-.719662E-01 0.184379E-01 0.187715E+00 0.222544E+01 -.254973E+01 -.447757E+01
-.918780E-01 0.149667E+01 0.608938E+00 0.101304E+01 0.379325E+00 -.100698E+01
-.424319E-01 -.267157E+00 0.667621E+00 -.242088E+00 -.152394E+02 0.106051E+01
-.334136E+01 0.262694E+01 -.249500E+00 0.124083E+01 -.448416E+00 0.454863E+00
0.351236E-01 0.917247E+00 0.350609E+00 0.118263E+00 -.111887E+01 -.864879E+01
0.258976E+01 0.161535E+02 0.354954E+00 -.338538E+01 -.154008E+01 -.532632E+01
-.212914E+01 0.441249E+01 0.351708E+00 0.137569E+01 -.309762E+01 0.795169E+00
0.371722E+02 -.223095E-01 0.168481E+02 -.679199E+01 0.382428E+01 -.296112E+01
0.417118E+00 -.119237E+01 0.110144E+01 -.230364E+01 -.567282E+00 -.589538E+00
0.258678E+01 0.106472E+02 0.106712E+02 -.286102E+02 -.146807E+01 0.284529E+01
0.891106E+00 0.109887E+02 0.501791E+01 -.847015E+01 -.132006E+01 -.300160E+01
0.621359E+01 -.903536E+00 -.394258E+02 -.158872E+01 -.250889E+02 0.686975E+01
-.586731E+01 0.304422E+01 -.210161E-02 0.137570E+01 -.197595E+01 0.249303E+01
0.361851E+00 0.812580E+00 -.259826E+01 -.319262E+01 -.217993E+02 0.242832E+02
0.221414E+01 -.253171E+00 0.931543E+00 -.100400E+02 -.523013E+01 0.750863E+01
0.180806E+01 0.296179E+01 -.568440E+01 0.281159E+00 0.152206E+02 0.109297E+01
0.116247E+02 -.246066E+01 0.264605E+01 -.113263E+01 -.988263E-01 -.571433E+00
0.972156E+00 -.967303E+00 -.714307E-01 -.358701E+00 0.950724E+00 -.997452E+00
0.108182E+02 -.781072E+01 -.103689E+01 -.500139E+00 -.838886E+00 0.339759E+01
0.198990E+01 -.251712E+01 -.814883E+00 -.108594E+01 0.194936E+01 0.567751E-01
0.153372E+00 -.130615E+00 -.666343E-01 -.203177E-01 -.236126E-01 -.275429E-01
-.106497E-01 -.141690E-02 0.104346E-01 0.146477E-01 -.120375E-01 -.125432E-01
-.866221E-02 0.780824E-01 0.103261E-01 -.101148E+00 0.325917E-01 -.256810E-01
0.128162E-01 0.116631E-01 0.718259E-02 -.143870E-02 -.135921E-02 0.852976E-02
0.358612E-02 -.670427E-02 0.147330E+00 0.595227E+00 -.314679E+00 -.251587E+00
0.130465E+00 0.961871E-01 0.348694E-01 0.190406E-01 0.503204E-01 0.791285E-01
-.387802E-01 -.617961E-01 -.136219E-01 0.629913E+00 0.457578E+00 -.283152E+00
-.202954E+00 -.306272E+00 -.256912E+00 0.109058E+00 -.443216E-01 0.294455E-01
-.685181E-01 0.927366E-01 0.991051E-01 -.223181E-01 -.200087E+01 0.173347E+01
-.584335E+00 -.480310E+00 0.199665E+00 0.270857E+00 0.844333E+00 0.271996E+00
-.419332E-01 -.251279E+00 0.468041E-01 0.252289E+00 0.171196E+00 -.105619E+01
0.111505E+01 0.179560E+01 -.796571E+00 -.380311E+00 -.936435E+00 -.398225E+00
-.278311E+00 0.183185E+00 0.165762E-01 -.705772E-02 -.468305E-01 0.308554E-03
0.289866E+00 -.651687E+01 -.511133E+00 0.123591E+01 0.820047E+00 -.250293E+00
-.112462E+01 0.442246E+00 -.451707E+00 -.140126E+01 0.675778E+00 0.632139E+00
0.739675E-01 -.444258E+01 -.433622E+01 0.557348E+01 -.118549E+01 0.272938E+01
0.462300E+01 -.745995E+00 0.758359E+00 0.809220E-01 0.102560E+01 -.168175E+01
-.156501E+01 -.883165E-01 0.951931E+01 -.345635E+01 0.185399E+01 0.350054E+01
0.190442E+00 -.848909E+00 -.394318E+01 -.161990E+01 0.213497E+00 0.923332E+00
0.269386E+00 -.177192E+01 -.135926E+01 0.185818E+01 -.488049E+01 -.800075E+01
0.299390E+01 0.453972E+01 0.562969E+01 0.204399E+01 0.207729E+01 -.184124E+01
0.213720E+00 -.901963E+00 -.444312E-01 -.295437E+00 -.646996E+01 0.297721E+02
0.152194E+02 -.496703E+01 -.445211E+01 -.297907E+01 0.609686E+01 -.344843E+01
0.731833E+00 0.761321E+01 -.316314E+01 -.291339E+01 -.364543E+00 0.135673E+02
0.144350E+02 -.217170E+02 0.108836E+02 -.124739E+02 -.242942E+02 0.540864E+00
-.271703E+01 -.161602E+01 -.467706E+01 0.786324E+01 0.739916E+01 0.120014E+01
-.189824E+02 -.406455E+00 0.790883E+01 -.687874E+01 -.247708E+01 0.201796E+01
0.517688E+01 0.344558E+01 -.814822E+00 -.118234E+01 -.154138E+01 0.481471E+01
0.405695E+01 0.528235E+01 0.424293E+01 0.163637E+02 -.385762E+01 -.131529E+02
-.118547E+02 -.307630E+01 -.548919E+01 0.570030E+01 -.103561E+01 0.382164E+01
0.703445E+00 0.146372E+01 0.188138E+02 -.683267E+02 -.416000E+02 0.121751E+02
0.342447E+01 0.120317E+02 -.128023E+02 0.892803E+01 0.119898E+01 -.175145E+02
0.615113E+01 0.660331E+01 0.116964E+01 -.202130E+02 -.264841E+02 0.297848E+02
-.249131E+02 0.280493E+02 0.542710E+02 0.240488E+01 0.335021E+01 0.489846E+01
0.934173E+01 -.155264E+02 -.152339E+02 -.353447E+01 0.169402E+02 0.448660E+01
-.219254E+02 0.455980E+01 0.410306E+01 -.315875E+01 -.109550E+01 -.305397E+01
0.132720E+01 0.347386E+00 0.242574E+01 -.547261E+01 -.498287E+01 -.146257E+02
0.322323E+01 -.177200E+02 0.134471E+01 0.147017E+02 0.107177E+02 0.798875E+00
0.593473E+01 -.703830E+01 0.145308E+01 -.538394E+01 -.123661E+01 -.215618E+01
-.207082E+02 0.776241E+02 0.380496E+02 -.136678E+02 0.424583E+01 -.147086E+02
0.116858E+02 -.988017E+01 -.350213E+01 0.179585E+02 -.540718E+01 -.704759E+01
-.163865E+01 0.154898E+02 0.287022E+02 -.940369E+01 0.225969E+02 -.293893E+02
-.545154E+02 -.344536E+01 -.104977E+01 -.560686E+01 -.851846E+01 0.138630E+02
0.144068E+02 0.418916E+01 -.552732E+01 -.211348E+01 0.131414E+02 -.692517E+00
-.196840E+01 0.180745E+01 -.100128E+01 0.927152E+00 -.723236E+00 0.177489E+00
-.122328E+01 0.218776E+01 0.214411E+01 0.865922E+01 -.394560E+01 0.791547E+01
0.303622E+00 -.576856E+01 -.362597E+01 0.662115E+00 -.224058E+01 0.302754E+01
-.652298E+00 0.249855E+01 0.632417E+00 0.997024E+00 0.804961E+01 -.342924E+02
-.993939E+01 0.562737E+01 -.435457E+01 0.583101E+01 -.393535E+01 0.398342E+01
0.201821E+01 -.676695E+01 0.180733E+01 0.282631E+01 0.783301E+00 -.510445E+01
-.136984E+02 -.496643E+01 -.707790E+01 0.115720E+02 0.203116E+02 0.113905E+01
-.328817E+00 0.222640E+01 0.288315E+01 -.461404E+01 -.513275E+01 -.175920E+01
-.324547E-01 0.548544E-01 0.783924E-02 0.759571E-01 0.309758E-01 -.590621E-01
0.219038E-01 0.474683E-01 0.280602E-02 0.313332E-02 0.295033E-02 -.132290E-01
-.155162E-01 0.241313E-01 -.341572E-02 0.581637E-01 -.554815E-01 0.672321E-01
-.294903E-01 -.372932E-01 0.685005E-02 0.375171E-01 -.752018E-02 0.343164E-02
0.911107E-02 -.812912E-02 0.137580E+00 -.215965E+00 0.147710E+00 -.171380E+00
-.342029E+00 0.145547E+00 0.213673E+00 0.137708E-01 -.518620E-01 0.322773E-01
-.576590E-01 0.147266E-01 0.194374E-01 0.274071E+00 -.148767E+00 -.318617E+00
0.320592E+00 -.206675E+00 -.200091E+00 0.132500E+00 0.569151E-01 -.125644E-01
0.469429E-01 0.416443E-01 0.358049E-01 0.239058E-02 -.208440E+00 -.496590E+00
-.494004E+00 -.111948E+01 -.649257E+00 0.100484E+01 -.586971E-01 -.588706E+00
0.322549E+00 -.315618E-02 -.125509E+00 0.170876E+00 0.292628E+00 -.164689E+01
0.431499E+00 -.996468E+00 0.969021E+00 -.953967E+00 0.279174E+00 0.805662E+00
-.497700E+00 -.474340E+00 0.353878E+00 -.462315E-01 -.119080E+00 0.413735E-01
-.951590E+00 0.212633E+01 -.158553E+01 -.548078E+00 0.131164E+01 -.136790E-01
-.957631E+00 -.106653E+00 0.645425E+00 -.434604E+00 0.265574E+00 -.320898E-01
0.664843E-02 -.232407E+01 0.118010E+01 0.294217E+01 -.112522E+01 -.224982E+00
0.771740E+00 0.255254E+00 -.563816E+00 0.121638E+00 -.116207E+00 -.641258E+00
-.450115E+00 0.114779E-01 0.212708E+01 0.418154E+01 0.162778E+01 0.676393E+01
0.203811E+01 -.324139E+01 0.361314E+00 0.170713E+01 -.122411E+01 0.104175E+00
0.855887E+00 -.744272E+00 -.108478E+01 0.864086E+01 -.202714E+01 0.699512E+01
-.359411E+01 0.652612E+01 -.144858E+01 -.242361E+01 0.238364E+01 0.141711E+01
-.198320E+01 0.592986E-01 0.406267E+00 -.376697E-01 0.238401E+01 -.562781E+01
0.429437E+01 0.492988E+01 -.165332E+01 -.181802E+01 0.117957E+01 0.219624E+00
-.153921E+01 0.116820E+01 -.382480E+00 -.236963E-01 -.148084E+00 0.451984E+01
-.278308E+01 -.741113E+01 0.119132E+01 0.426766E+01 -.602222E+00 -.255732E+01
0.125595E+01 -.313252E+00 -.189005E-01 0.178648E+01 0.112083E+01 -.653903E-01
-.536191E+01 -.925516E+01 -.166354E+01 -.143419E+02 -.182302E+01 0.329325E+01
-.108352E+01 -.180223E+01 0.996059E+00 -.438173E+00 -.181204E+01 0.126740E+01
0.145175E+01 -.149634E+02 0.325792E+01 -.147366E+02 0.477759E+01 -.147989E+02
0.292485E+01 0.192135E+01 -.343495E+01 -.163809E+01 0.371444E+01 0.537988E-01
-.526240E+00 -.652139E-01 -.176316E+01 0.401690E+01 -.345693E+01 -.505204E+01
0.100511E+01 0.220072E+01 -.227569E+00 -.157782E+00 0.936095E+00 -.872466E+00
0.149032E+00 0.559216E-01 0.131837E+00 -.257190E+01 0.207250E+01 0.508923E+01
-.673235E+00 -.470078E+01 -.261055E+00 0.271838E+01 -.714882E+00 0.213612E+00
0.138656E+00 -.136100E+01 -.761446E+00 0.690178E-01 0.365410E+01 0.617274E+01
0.648059E+00 0.969050E+01 -.584572E-01 -.886572E+00 0.745017E+00 0.609367E+00
0.125023E+00 0.402434E+00 0.120679E+01 -.740790E+00 -.624032E+00 0.848042E+01
-.186843E+01 0.974273E+01 -.183402E+01 0.104117E+02 -.175232E+01 -.962978E-01
0.143422E+01 0.669222E+00 -.226202E+01 -.689538E-01 0.209167E+00 0.679913E-01
0.438620E-02 0.575481E-02 0.179746E-01 0.484259E-01 -.214702E-01 0.198106E-01
-.446347E-02 0.582168E-02 -.532764E-01 -.114311E-01 0.695962E-02 -.272001E-02
-.980117E-02 0.568725E-02 -.153655E-01 -.163647E-01 0.852003E-02 0.397263E-01
0.106241E-01 0.212249E-01 0.538499E-01 0.930848E-02 -.838325E-02 -.140258E-01
0.506624E-02 -.161459E-02 0.508038E-01 -.692069E-01 -.760383E-01 0.921318E-01
-.106454E+00 -.909031E-01 0.793031E-01 0.411432E-01 -.680485E-01 -.718731E-03
0.189194E-01 -.318771E-01 0.447223E-01 -.199519E-01 0.713268E-01 -.553392E-01
0.114692E+00 0.815291E-01 -.683874E-01 -.868563E-01 0.735918E-01 0.397704E-01
-.486846E-03 0.126079E-01 -.230191E-01 -.429565E-01 -.157941E-01 0.767814E-01
-.488239E-01 -.358005E+00 -.231536E+00 -.127727E+00 0.151997E+00 0.701950E-01
0.235696E+00 0.223286E+00 -.606646E-01 -.253529E-01 0.934606E-01 -.679601E-01
-.139712E-01 0.238443E+00 0.260410E+00 -.342824E+00 -.232316E+00 -.127774E+00
-.201408E+00 0.827993E-01 0.545839E-01 0.286781E+00 -.391710E-01 -.312576E-01
-.982560E-01 0.841766E-01 0.908015E-01 -.193321E+00 0.261905E+00 0.195621E+00
-.249912E+00 -.137306E+00 0.156543E+00 0.629150E-02 -.248237E-01 0.515835E-01
-.655649E-01 0.492021E-01 -.764532E-01 0.699091E-01 -.279998E+00 -.176321E+00
0.222014E+00 0.189274E+00 -.162525E+00 -.131645E+00 -.125470E-01 -.184874E-01
0.342540E-01 0.738010E-01 0.202941E-01 -.201185E+00 0.243199E+00 0.499732E+00
0.308975E+00 0.142786E+00 -.338693E+00 -.144142E+00 -.202199E+00 -.337441E+00
0.737370E-01 0.532619E-01 -.130285E+00 0.105164E+00 -.156448E+00 -.435304E+00
-.321003E+00 0.496474E+00 0.461659E+00 0.152849E+00 0.145904E+00 -.178600E+00
-.480696E-01 -.441010E+00 0.567353E-01 0.604543E-01 0.569197E-02 0.249683E-02
-.231094E-02 -.151000E-02 0.899363E-03 -.228088E-01 0.216208E-01 0.137671E-01
0.201699E-01 -.182854E-01 0.214821E-02 -.160489E-01 -.112334E-01 0.185585E-02
0.683978E-03 -.124064E-02 -.228867E-02 -.402271E-02 -.293652E-01 -.242274E-01
-.201871E-01 0.120493E-01 0.314304E-03 -.146955E-01 0.923899E-02 -.154630E-01
-.161822E-02 0.118210E-01 0.171683E-02 -.627587E-01 0.102523E-02 0.104006E-01
0.115455E-01 0.277741E-01 -.685913E-02 -.254012E-01 -.174941E-03 0.183168E-02
0.125064E-01 -.141663E-02 -.336406E-02 0.680823E-02 -.200594E-02 -.621047E-01
-.230938E-01 0.373076E-02 0.607470E-02 0.302523E-01 0.377473E-02 -.664496E-02
-.128420E-01 0.513806E-02 0.318973E-02 0.295897E-02 -.221604E-02 0.309356E-02
-.167549E-02 0.112782E-01 0.911949E-03 -.799494E-02 0.137976E-03 0.340771E-01
-.345699E-01 -.295819E-02 0.218382E-01 0.304375E-02 0.211463E-02 -.507838E-02
0.260962E-02 -.644032E-02 0.262954E-02 0.133389E-01 -.473978E-02 -.275622E-02
0.314822E-01 0.334487E-01 -.203599E-01 -.183327E-02 0.310855E-02 0.143747E-02
0.461303E-02 -.366470E-02 -.306053E-02 -.268243E-02 0.166373E-02 0.953345E-02
0.179568E-01 0.133359E-01 -.186955E-02 -.467205E-01 0.232359E-01 -.134710E-02
0.292731E-02 0.285022E-02 -.175939E-02 -.194384E-02 -.897460E-03 -.649804E-02
-.151058E-01 0.902614E-02 0.839268E-03 0.146397E-01 -.237415E-01 -.453848E-01
0.151779E-03 0.698937E-03 0.206771E-04 -.675546E-03 -.701544E-03 -.202157E-02
0.326343E-02 0.172352E-02 0.558455E-03 -.376082E-02 -.739731E-02 0.553601E-02
-.118668E-01 0.823082E-03 -.657923E-03 0.253654E-02 0.326423E-02 0.245109E-02
-.524751E-02 0.602872E-03 -.112688E-02 -.863855E-03 0.660633E-02 -.702027E-02
0.126993E-01 0.372997E-02 0.155536E-02 0.170223E-04 -.236545E-02 0.380335E-02
-.194470E-02 -.807837E-03 0.377222E-02 0.186136E-02 -.500911E-03 -.133943E-02
-.172028E-02 -.455961E-02 0.206416E-02 0.214241E-02 -.377000E-02 -.574332E-03
-.144598E-02 0.272877E-02 -.811648E-03 0.131064E-02 0.341115E-02 0.102554E-02
0.298935E-02 -.306672E-03 -.116040E-02 -.354719E-02 0.622414E-04 -.793436E-03
0.619797E-04 -.625385E-04 -.387871E-03 0.153066E-04 0.366728E-04 -.352757E-04
-.752991E-04 -.707749E-04 0.884875E-05 0.267147E-04 0.343105E-04 0.632276E-04
-.207262E-02 -.345983E-02 -.108215E-02 0.224829E-02 0.363877E-03 0.287950E-03
0.257454E-03 -.348613E-03 -.149260E-03 -.142883E-03 0.195953E-03 -.757327E-04
-.248758E-01 0.454154E-02 -.191625E-02 0.287293E-02 0.352349E-02 0.810623E-03
-.863405E-03 0.312129E-03 0.976093E-03 0.977395E-03 0.414496E-03 -.589243E-04
-.126820E-02 -.121615E-01 0.220175E-01 0.446044E-01 0.157779E-01 -.180370E-01
-.316599E-02 -.742282E-02 -.404512E-02 0.578949E-02 0.126774E-02 0.217173E-02
-.337594E-02 0.137121E-02 0.171428E+00 -.106554E-01 0.281551E-01 -.242240E-01
-.402913E-02 -.424438E-02 0.272611E-02 -.152356E-02 -.953667E-03 -.555075E-02
-.140015E-02 -.109219E-02 0.695008E-02 0.483206E-01 -.438956E-01 -.183211E+00
-.763900E-01 0.522101E-01 0.613828E-02 0.367961E-01 0.210026E-01 -.267261E-01
-.694299E-02 -.103482E-01 0.170476E-01 -.418641E-02 -.425989E+00 0.173949E-01
-.130139E+00 0.607116E-01 -.108027E-01 0.816660E-02 -.237018E-02 0.388039E-02
-.526908E-02 0.134737E-01 0.753197E-03 0.436891E-02 -.148979E-01 -.356457E-01
-.235855E-01 0.346230E+00 0.161520E+00 -.697518E-01 0.242538E-02 -.730640E-01
-.471681E-01 0.530632E-01 0.182309E-01 0.216882E-01 -.362468E-01 0.386449E-02
0.449567E+00 -.153166E-01 0.194823E+00 -.612088E-01 0.224266E-01 -.694639E-02
-.985148E-04 -.467198E-02 0.107752E-01 -.143095E-01 0.124611E-02 -.559018E-02
0.140496E-01 -.316851E-01 0.109728E+00 -.306887E+00 -.154095E+00 0.428920E-01
-.139867E-01 0.645286E-01 0.475747E-01 -.481516E-01 -.208882E-01 -.209031E-01
0.345477E-01 0.306458E-04 -.170612E+00 0.470343E-02 -.912816E-01 0.219798E-01
-.107673E-01 0.217320E-02 0.564572E-03 0.206440E-02 -.551174E-02 0.548771E-02
-.103272E-02 0.236404E-02 -.487347E-02 0.316578E-01 -.624383E-01 0.102837E+00
0.543452E-01 -.953000E-02 0.830128E-02 -.211415E-01 -.176826E-01 0.164163E-01
0.852703E-02 0.755908E-02 -.122062E-01 -.101354E-02 -.107564E-02 0.117647E-02
0.171216E-03 -.248791E-04 0.155771E-03 0.253561E-03 0.220055E-03 0.113600E-04
-.717642E-04 -.100728E-03 0.780128E-04 0.739258E-04 0.457243E-04 -.325312E-03
0.123270E-03 0.953074E-03 -.203724E-03 0.468378E-04 -.215850E-03 -.196815E-04
-.373030E-04 0.113653E-04 0.178651E-04 -.617132E-04 -.151137E-04 0.443821E-04
0.357153E-03 -.588071E-02 0.210526E-02 0.275416E-02 -.143839E-02 -.156748E-03
0.613651E-03 0.126652E-03 -.199821E-03 -.595375E-03 0.132696E-03 0.343258E-03
0.192533E-03 -.462114E-02 -.664001E-02 -.276621E-03 0.106872E-02 0.334416E-02
0.109671E-02 0.175893E-05 0.325189E-03 -.159373E-03 0.315886E-03 -.547643E-03
-.675268E-03 0.179675E-03 0.147272E-01 -.258861E-01 0.129018E-01 0.370053E-02
-.107966E-02 -.364213E-02 -.844024E-02 -.150988E-02 0.654820E-03 0.172242E-02
-.632842E-03 -.143612E-02 -.837555E-03 0.114241E-01 -.883731E-02 -.227804E-01
0.353964E-02 0.192977E-02 0.917994E-02 0.170318E-02 0.136020E-02 -.115364E-02
-.794055E-04 0.178572E-03 0.112600E-03 -.313839E-03 -.159761E-01 0.539925E-01
-.188895E-02 -.166143E-01 0.232150E-02 -.474261E-02 0.167221E-03 -.695367E-02
0.674808E-03 0.106613E-01 -.320135E-02 -.380387E-02 -.196648E-02 0.316924E-01
0.834011E-01 -.109445E-01 0.121350E-01 -.282395E-01 -.263442E-01 -.424608E-02
-.567150E-02 -.247330E-03 -.379058E-02 0.103806E-01 0.106539E-01 -.319021E-03
-.736233E-01 0.118106E+00 -.715044E-01 -.272292E-01 0.100720E-01 0.107961E-01
0.394104E-01 0.733606E-02 -.602472E-02 -.558756E-02 0.174593E-02 0.106270E-01
0.655728E-02 -.632983E-01 0.367703E-01 0.107468E+00 -.150073E-01 -.274927E-01
-.553611E-01 -.163052E-01 -.919849E-02 0.113926E-01 -.734392E-03 0.502125E-02
0.151571E-02 0.536291E-02 0.907163E-01 -.214315E+00 -.106913E+00 0.477227E-01
-.106195E-01 0.451417E-01 -.132618E-01 0.419244E-01 0.705695E-02 -.588220E-01
0.138061E-01 0.197720E-01 0.794336E-02 -.895583E-01 -.305533E+00 0.333247E-02
-.832046E-01 0.101512E+00 0.150712E+00 0.336309E-01 0.216999E-01 0.581358E-02
0.159658E-01 -.505254E-01 -.497808E-01 -.228918E-02 0.154721E+00 -.227778E+00
0.119897E+00 0.640265E-01 -.375886E-01 -.160844E-01 -.564050E-01 -.118761E-01
0.216239E-01 0.463571E-02 -.117264E-02 -.298998E-01 -.196527E-01 0.125106E+00
-.502226E-01 -.209162E+00 0.267578E-01 0.893718E-01 0.119839E+00 0.411459E-01
0.218918E-01 -.350578E-01 0.283948E-02 -.230359E-01 -.710834E-02 -.206981E-01
-.202840E+00 0.464360E+00 0.387961E+00 -.722727E-01 0.713528E-01 -.125288E+00
0.318248E-01 -.977857E-01 -.350895E-01 0.137074E+00 -.222794E-01 -.485632E-01
-.159104E-01 0.134521E+00 0.492063E+00 0.143769E+00 0.168002E+00 -.180690E+00
-.349386E+00 -.851312E-01 -.298725E-01 -.155616E-01 -.303838E-01 0.104192E+00
0.100796E+00 0.912504E-02 -.147625E+00 0.209261E+00 -.693975E-01 -.611958E-01
0.543126E-01 0.167716E-01 0.202649E-01 0.630444E-02 -.307620E-01 0.277716E-02
-.163883E-02 0.346364E-01 0.242162E-01 -.956740E-01 0.186416E-01 0.191855E+00
-.225024E-01 -.110953E+00 -.110795E+00 -.379641E-01 -.208503E-01 0.430172E-01
-.296119E-02 0.335858E-01 0.994740E-02 0.281029E-01 0.203426E+00 -.521311E+00
-.454941E+00 0.552576E-01 -.128571E+00 0.135626E+00 -.254253E-01 0.100909E+00
0.518787E-01 -.141984E+00 0.147649E-01 0.544472E-01 0.156958E-01 -.113702E+00
-.383208E+00 -.300640E+00 -.135997E+00 0.159693E+00 0.357450E+00 0.834122E-01
0.132440E-01 0.151224E-01 0.261428E-01 -.975052E-01 -.936119E-01 -.117536E-01
0.537876E-01 -.761977E-01 0.749643E-02 0.213203E-01 -.269778E-01 -.834585E-02
0.533334E-02 0.613645E-04 0.149235E-01 -.367820E-02 0.178975E-02 -.139594E-01
-.104228E-01 0.225054E-01 0.429320E-02 -.693998E-01 0.789039E-02 0.481015E-01
0.377029E-01 0.115072E-01 0.666136E-02 -.183554E-01 0.826799E-03 -.159463E-01
-.449599E-02 -.125639E-01 -.770472E-01 0.230984E+00 0.168771E+00 -.180039E-01
0.686056E-01 -.507586E-01 0.617944E-02 -.385861E-01 -.247620E-01 0.539327E-01
-.335204E-02 -.225408E-01 -.599390E-02 0.420167E-01 0.125537E+00 0.171820E+00
0.370268E-01 -.569700E-01 -.134396E+00 -.277749E-01 0.550396E-03 -.493695E-02
-.799995E-02 0.341399E-01 0.327734E-01 0.505349E-02 0.989297E-04 -.379667E-03
0.995260E-04 -.538379E-03 -.796706E-03 0.367695E-03 -.379465E-03 -.241275E-03
0.398864E-05 -.109392E-04 -.215088E-04 0.815047E-04 0.103145E-03 -.257212E-03
-.147222E-03 -.417652E-03 0.879967E-03 -.454201E-03 0.434878E-03 0.227315E-03
-.606568E-04 -.177367E-03 0.470836E-04 -.171976E-04 -.626504E-04 0.567845E-04
-.394583E-03 0.236765E-02 -.458018E-03 0.142387E-02 0.274391E-02 -.126334E-02
-.997381E-03 0.793298E-04 0.140235E-03 -.201324E-03 0.291192E-03 -.194949E-03
-.113367E-03 -.296185E-02 0.559642E-03 0.286708E-02 -.291548E-02 0.151796E-02
0.891710E-03 -.106815E-02 -.175682E-03 0.177369E-03 -.307240E-03 -.232487E-03
-.274343E-03 -.679977E-04 0.133280E-02 0.289863E-02 -.803434E-03 0.121200E-01
0.110518E-01 -.628234E-02 0.273225E-02 0.275718E-02 -.237488E-02 -.150731E-03
0.636950E-03 -.106870E-02 -.187330E-02 0.143506E-01 0.170411E-02 0.659367E-02
-.116309E-01 0.100635E-01 -.426867E-02 -.491496E-02 0.332228E-02 0.213250E-02
-.177685E-02 0.215890E-03 0.902468E-03 -.552889E-03 0.175500E-02 -.219135E-01
0.755757E-02 -.560412E-02 -.101654E-01 0.177348E-02 0.496962E-02 -.112995E-02
-.288282E-02 0.264219E-02 -.105383E-02 0.649895E-03 0.789231E-04 0.275031E-01
-.639024E-02 -.259164E-01 0.104467E-01 -.579063E-02 -.342526E-02 -.107523E-02
0.211722E-02 -.152417E-02 0.116475E-02 0.339256E-02 0.328785E-02 -.137869E-05
-.116378E-01 -.215736E-01 0.182351E-01 -.636531E-01 -.322658E-01 0.225042E-01
-.662576E-02 -.572549E-02 0.103805E-01 -.443342E-03 -.488683E-02 0.481898E-02
0.666523E-02 -.784479E-01 -.178988E-01 -.400567E-01 0.384992E-01 -.555741E-01
0.126158E-01 0.157325E-01 -.168798E-01 -.465535E-02 0.895210E-02 -.814961E-03
-.312939E-02 0.157681E-02 -.668151E-02 0.555101E-01 -.239050E-01 -.358909E-02
0.130965E-01 0.102832E-01 -.766915E-02 0.371090E-02 0.662638E-02 -.694311E-02
0.113279E-02 -.570541E-03 0.544822E-03 -.577389E-01 0.185196E-01 0.647091E-01
-.121391E-01 -.419721E-02 0.284590E-02 0.177252E-01 -.389368E-02 0.414410E-02
-.127431E-02 -.941569E-02 -.824150E-02 0.483060E-03 0.298474E-01 0.386494E-01
-.537160E-01 0.115455E+00 0.296980E-01 -.288174E-01 0.754057E-02 0.820093E-03
-.126030E-01 0.280564E-02 0.109001E-01 -.843304E-02 -.860391E-02 0.138417E+00
0.455948E-01 0.718845E-01 -.470833E-01 0.104937E+00 -.152969E-01 -.159357E-01
0.264420E-01 0.159555E-02 -.156772E-01 0.119811E-02 0.421633E-02 -.168753E-02
0.504842E-02 -.382440E-01 0.205999E-01 0.107565E-01 -.822646E-02 -.143012E-01
0.275730E-02 -.303457E-02 -.332011E-02 0.508114E-02 -.208679E-03 0.740605E-04
-.519935E-03 0.367158E-01 -.154877E-01 -.441663E-01 0.680356E-02 0.119795E-01
0.135711E-02 -.194868E-01 0.111233E-02 -.316674E-02 0.262457E-03 0.722464E-02
0.567368E-02 -.521547E-03 -.205894E-01 -.214727E-01 0.384095E-01 -.682895E-01
-.342200E-02 0.125634E-01 -.274435E-02 0.341764E-02 0.333983E-02 -.254120E-02
-.743589E-02 0.501585E-02 0.349602E-02 -.801103E-01 -.302187E-01 -.428413E-01
0.169290E-01 -.644910E-01 0.580157E-02 0.456218E-02 -.122067E-01 0.172034E-02
0.922359E-02 -.601050E-03 -.180971E-02 0.659980E-03 -.357038E-05 -.221109E-04
-.247237E-04 -.381609E-03 0.173068E-03 -.904882E-04 0.667928E-04 -.689564E-05
0.397215E-03 0.335541E-04 -.884978E-04 0.109477E-04 0.649225E-04 -.368688E-04
0.113609E-04 0.104408E-03 -.995146E-04 -.351447E-03 -.114241E-03 -.942315E-04
-.408980E-03 -.297083E-04 0.924086E-04 0.481773E-04 -.365328E-04 0.639282E-05
-.204221E-03 0.337522E-04 0.765203E-03 -.176504E-03 0.747207E-03 0.931011E-03
-.319475E-03 0.135223E-03 0.392993E-03 0.870285E-04 -.353142E-03 0.178505E-03
-.228416E-03 0.257730E-04 -.785398E-03 -.716596E-04 -.780786E-03 -.120259E-03
0.233380E-03 0.859681E-03 -.419972E-03 0.131330E-03 0.180848E-03 0.266752E-04
0.105964E-03 0.268406E-03 -.249692E-03 -.898118E-03 -.945324E-03 0.356630E-02
0.150505E-02 0.149034E-02 -.133303E-02 -.540319E-03 -.176844E-02 -.111212E-02
0.737764E-03 0.216212E-03 -.540800E-03 0.404236E-03 0.119617E-02 -.167473E-02
-.151210E-02 0.373956E-02 0.182288E-02 0.135365E-02 0.171141E-02 -.596248E-03
-.480575E-03 -.143756E-02 0.217345E-03 0.125333E-03 0.389206E-03 0.235195E-03
-.606252E-03 0.691341E-03 -.205620E-02 -.190359E-02 0.101931E-02 -.518839E-04
-.856368E-03 -.822670E-04 0.625501E-03 -.313863E-03 0.330042E-03 -.802842E-04
0.519253E-03 0.367876E-03 0.212578E-02 0.630732E-03 -.806985E-03 -.179586E-02
0.871113E-03 -.870527E-04 -.307661E-03 0.515008E-04 -.151444E-03 -.504924E-03
0.404963E-03 0.194609E-02 0.884812E-03 -.502533E-02 -.170249E-02 -.223230E-02
0.202139E-02 0.105255E-02 0.141014E-02 0.184428E-02 -.106698E-02 -.355725E-03
0.749067E-03 -.451496E-03 -.120956E-02 0.300487E-02 0.150691E-02 -.540132E-02
-.273962E-02 -.210220E-02 -.128192E-02 0.122818E-02 0.548108E-03 0.237486E-02
-.313476E-03 -.188698E-03 -.335396E-04 -.208329E-04 0.151683E-04 0.630315E-04
-.298021E-04 0.132944E-03 -.198495E-03 -.687539E-04 -.177661E-03 0.144295E-03
-.463898E-04 0.106907E-03 0.781136E-04 0.235110E-05 -.142817E-04 -.563097E-05
0.540947E-04 0.627126E-04 0.250689E-03 0.142816E-03 0.173511E-03 -.499227E-04
0.342134E-04 0.125472E-03 -.608321E-04 0.100928E-03 0.381529E-04 -.117229E-03
-.544452E-05 0.455677E-03 -.340146E-04 -.265258E-03 -.129406E-03 -.246282E-03
0.175557E-03 0.132534E-04 -.842845E-04 -.932126E-04 -.191443E-03 -.135709E-05
-.314362E-04 -.586378E-04 0.477131E-04 0.478568E-03 0.202632E-03 -.229911E-03
-.183947E-03 -.260409E-03 0.654812E-04 -.931070E-04 0.199649E-03 -.127588E-03
-.172184E-04 -.135035E-04 0.114764E-04 -.133743E-04 0.829248E-05 -.790386E-04
0.516651E-04 0.102808E-03 0.374651E-04 -.276534E-03 0.183547E-03 -.232101E-04
-.159535E-03 -.618663E-05 -.166788E-04 0.487399E-04 -.991689E-05 0.467971E-04
-.742027E-04 -.112091E-03 -.972759E-05 0.707241E-04 -.168211E-03 -.274208E-03
0.149623E-03 -.283102E-04 -.224989E-04 -.226593E-04 -.457668E-04 0.752542E-05
0.835266E-05 0.196807E-04 -.624263E-05 -.208732E-04 -.609974E-04 -.140182E-03
-.111283E-05 0.348404E-03 -.131977E-03 0.170697E-05 -.201612E-04 -.175244E-04
0.251287E-04 0.109598E-04 -.579402E-05 0.366081E-04 0.452217E-04 -.201511E-04
0.661818E-05 -.148236E-03 0.135878E-03 0.344582E-03 -.867377E-05 -.384124E-05
0.364643E-05 0.107324E-05 0.176380E-04 0.248623E-05 -.138466E-04 -.196728E-04
0.889764E-06 0.624912E-04 0.893573E-05 -.592349E-04 0.251407E-04 -.973587E-05
-.101229E-06 -.120161E-04 -.161986E-04 -.166420E-04 0.268242E-04 -.151916E-04
0.523173E-05 -.262795E-05 0.168426E-05 0.802935E-04 -.288849E-04 -.496006E-04
-.871564E-05 -.205357E-05 0.154788E-04 -.263440E-04 0.122564E-04 0.887268E-05
-.214615E-04 -.151734E-04 0.119966E-04 0.970280E-05 0.634838E-05 -.498078E-05
-.368623E-04 -.129421E-04 0.232487E-04 0.126720E-04 0.148206E-04 -.127339E-04
-.316959E-05 -.710577E-05 -.355547E-04 -.563732E-05 -.159544E-04 0.371051E-05
0.279902E-04 -.116965E-04
9th set of coefficients
-.123933E-01 0.339574E-01 -.828286E-02 0.265212E-01 0.953174E-03 -.336785E-02
-.178632E-03 -.203738E-02 -.559707E-02 -.863503E-03 0.849061E-03 0.249235E-02
0.932540E-03 -.195026E+00 -.705340E-01 0.557872E+00 0.218966E-01 0.350287E+00
-.272358E-01 -.757184E-02 0.253177E-01 -.325338E-01 0.631167E-02 0.121514E-01
0.124471E-01 -.235210E-02 -.748361E-01 0.491912E+00 -.299211E-01 -.448282E+00
0.542531E-01 0.822941E-01 -.137703E-01 0.393707E-01 0.201922E+00 -.484842E-01
-.510585E-01 -.859555E-01 -.753447E-01 0.806509E+00 -.142976E+01 -.604420E+01
0.160568E+01 -.250376E+01 0.598482E+00 0.204743E+00 -.308311E+00 0.640527E+00
-.145237E+00 -.988288E-01 -.123026E+00 -.105199E+00 0.182796E+01 -.578196E+01
0.848703E-01 0.185624E+01 -.872870E-01 0.181427E-01 0.338663E+00 -.206815E+00
-.139689E+01 0.516375E+00 0.371709E+00 0.359181E+00 0.538743E+00 -.257794E+01
0.927167E+01 0.246153E+02 -.941731E+01 0.640546E+01 -.303818E+01 -.125231E+01
0.119531E+01 -.331805E+01 0.809973E+00 0.319300E+00 0.488095E+00 0.586659E+00
-.754254E+01 0.171695E+02 -.844664E-03 -.341973E+01 -.575823E+00 -.106511E+01
-.133128E+01 0.487986E+00 0.357436E+01 -.151621E+01 -.997886E+00 -.558109E+00
-.135255E+01 0.974011E+00 -.199608E+02 -.475132E+02 0.197585E+02 -.680351E+01
0.653542E+01 0.307837E+01 -.214103E+01 0.717675E+01 -.173562E+01 -.482503E+00
-.968670E+00 -.118048E+01 0.116218E+02 -.201094E+02 0.167390E+00 0.303726E+01
0.122873E+01 0.193309E+01 0.182593E+01 -.549015E+00 -.384689E+01 0.173842E+01
0.111598E+01 0.343768E+00 0.143366E+01 0.463523E+01 0.186980E+02 0.430892E+02
-.181151E+02 0.244719E+01 -.645547E+01 -.328593E+01 0.184530E+01 -.693882E+01
0.157623E+01 0.327558E+00 0.957748E+00 0.104342E+01 -.602063E+01 0.824699E+01
-.233332E+00 -.105466E+01 -.631058E+00 -.977496E+00 -.824678E+00 0.235903E+00
0.147484E+01 -.694346E+00 -.439284E+00 -.572738E-01 -.547391E+00 -.374173E+01
-.653924E+01 -.147198E+02 0.615610E+01 0.119110E+00 0.240103E+01 0.126725E+01
-.620426E+00 0.247891E+01 -.508053E+00 -.780248E-01 -.371707E+00 -.341597E+00
-.333932E-01 -.500113E-01 0.215467E+00 -.134577E-01 -.303010E-01 0.282693E-01
-.892058E-02 0.258672E-02 0.595057E-03 -.471615E-02 0.507614E-02 0.766827E-03
-.303938E-02 -.725984E-01 -.134216E+00 0.158245E-01 0.261392E-01 -.147433E-01
0.760684E-02 0.265127E-01 -.924545E-03 -.845815E-03 -.330820E-02 0.946790E-03
0.149743E-03 -.542518E-02 0.968579E-01 -.286692E+00 -.394203E+00 -.632474E-01
0.172837E+00 -.884886E-01 -.161340E-01 -.164955E-01 -.237740E-02 -.256574E-01
-.818813E-02 0.134027E-01 -.489156E-01 0.277516E+00 0.860689E-01 0.227743E+00
-.246584E+00 -.870398E-01 0.377699E-01 -.190133E-01 0.385796E-01 0.329558E-01
0.310430E-01 -.901681E-04 0.439711E-01 0.411614E-02 0.122212E+01 0.479445E-01
-.337297E+01 -.132477E-01 0.245642E+00 -.799601E+00 0.310291E-01 -.106606E+00
-.100008E+00 0.106262E+00 -.147040E+00 0.172635E-01 0.151147E+00 0.108304E+01
0.116971E+01 0.230939E+00 -.452810E-01 -.186978E+00 -.109105E+00 -.573229E+00
-.564271E-01 0.610339E-01 0.798815E-01 -.122364E+00 0.210869E-01 0.236462E+00
-.129750E+01 0.215969E+01 0.879821E+01 -.292413E+00 -.115613E+01 0.224086E+01
0.208505E+01 0.130980E+00 0.529522E-01 0.492651E+00 0.185279E+00 -.133745E+00
0.827011E+00 -.485471E+01 -.357423E+01 -.453510E+01 0.252600E+01 0.401927E-01
-.229877E+01 0.977762E+00 -.473603E+00 -.694034E+00 -.399788E+00 0.604895E-01
-.534841E+00 -.475836E-01 -.118317E+02 0.174344E+00 0.236669E+02 0.799335E+00
-.156528E+01 0.619676E+01 0.114124E+01 0.671140E+00 0.326501E+00 -.730163E-01
0.388177E+00 -.294856E+00 -.133499E+01 -.406957E+01 -.895618E+01 -.643497E+01
0.310381E+00 0.284344E+01 -.142359E+00 0.438142E+01 0.859854E+00 -.101250E+01
-.351741E+00 0.137944E+01 -.469612E+00 -.187124E+01 0.142777E+01 -.537453E+01
-.530938E+02 0.363672E+01 0.292759E+01 -.152586E+02 -.151716E+02 -.465570E+00
-.418043E+00 -.243962E+01 -.114439E+01 0.768030E+00 -.443778E+01 0.211178E+02
0.289980E+02 0.205591E+02 -.105793E+02 0.413950E+01 0.158808E+02 -.862963E+01
0.233786E+01 0.323055E+01 0.175658E+01 -.515159E+00 0.256407E+01 0.214688E-01
0.394766E+02 -.168990E+00 -.713503E+02 -.253968E+01 0.544871E+01 -.185126E+02
-.634015E+01 -.165119E+01 0.339335E-01 -.123067E+01 0.185204E+00 0.117277E+01
0.402855E+01 0.790878E+01 0.350744E+02 0.247515E+02 -.247279E+01 -.100156E+02
0.311227E+01 -.129704E+02 -.330908E+01 0.368245E+01 0.529076E+00 -.461651E+01
0.185363E+01 0.534438E+01 0.606704E+01 0.313406E+00 0.136424E+03 -.987881E+01
-.236316E+01 0.403852E+02 0.401542E+02 0.743110E+00 0.110082E+01 0.518999E+01
0.277018E+01 -.211598E+01 0.100202E+02 -.386474E+02 -.911005E+02 -.416504E+02
0.212303E+02 -.153716E+02 -.410866E+02 0.248938E+02 -.543184E+01 -.621026E+01
-.346269E+01 0.143971E+01 -.589696E+01 0.553524E+00 -.506959E+02 -.812778E+00
0.926450E+02 0.350536E+01 -.715576E+01 0.232497E+02 0.101685E+02 0.187515E+01
-.928441E+00 0.277728E+01 -.128754E+01 -.181264E+01 -.496402E+01 -.783390E+01
-.534452E+02 -.342163E+02 0.422567E+01 0.143339E+02 -.623546E+01 0.159951E+02
0.480294E+01 -.480417E+01 -.129967E+00 0.607452E+01 -.263790E+01 -.642424E+01
-.131904E+02 0.103996E+02 -.155430E+03 0.995402E+01 -.152858E+01 -.458767E+02
-.455909E+02 -.536119E+00 -.111412E+01 -.502966E+01 -.279577E+01 0.262892E+01
-.100428E+02 0.319890E+02 0.117303E+03 0.406704E+02 -.195883E+02 0.187813E+02
0.459167E+02 -.290600E+02 0.582939E+01 0.532720E+01 0.303799E+01 -.158845E+01
0.644814E+01 -.115519E+01 0.222027E+02 0.132347E+01 -.426831E+02 -.178365E+01
0.292536E+01 -.103384E+02 -.507211E+01 -.818604E+00 0.671038E+00 -.164613E+01
0.896836E+00 0.965059E+00 0.215843E+01 0.315933E+01 0.270350E+02 0.161622E+02
-.193868E+01 -.718557E+01 0.343845E+01 -.694423E+01 -.232446E+01 0.206690E+01
-.160994E+00 -.277024E+01 0.126254E+01 0.276753E+01 0.722545E+01 -.736368E+01
0.645872E+02 -.339457E+01 0.193861E+01 0.188137E+02 0.188025E+02 0.196171E+00
0.385829E+00 0.183326E+01 0.986114E+00 -.118175E+01 0.370275E+01 -.994770E+01
-.525527E+02 -.154407E+02 0.671003E+01 -.752480E+01 -.186977E+02 0.119417E+02
-.235066E+01 -.162863E+01 -.950583E+00 0.614011E+00 -.267956E+01 0.636181E+00
0.212050E-02 0.425279E-01 -.155048E-01 -.106637E+00 -.283507E-01 -.168477E-02
0.583365E-01 -.175389E-01 0.114805E-01 -.544034E-03 0.169415E-02 0.505038E-02
0.392115E-02 0.196002E-01 0.165000E-01 0.408221E-01 0.242720E-01 -.110526E+00
-.579251E-01 0.295129E-02 -.166973E-01 -.136803E-01 -.678652E-03 0.155276E-02
-.281175E-02 0.373010E-02 -.121418E+00 -.606336E-02 0.304797E+00 0.298444E+00
-.167546E+00 -.889761E-01 0.190926E-01 0.155548E+00 0.537035E-01 -.919745E-02
0.290907E-02 -.218850E-01 -.695733E-02 -.109217E+00 -.246026E+00 0.127525E-01
0.154769E+00 0.249726E+00 -.239926E-01 -.502588E-01 -.453299E-01 0.204676E+00
-.139325E-01 0.846854E-02 -.172409E-01 -.198777E-01 0.111383E+00 -.496770E+00
-.134161E+01 0.126981E+01 -.296222E+00 0.205588E+00 -.740426E+00 0.262652E+00
0.339510E-01 0.354933E-02 -.141838E-01 -.149420E+00 -.198821E+00 -.594708E+00
0.117272E+01 -.351332E+00 0.400868E+00 0.122006E+01 0.735322E+00 0.397045E-01
0.127414E+00 0.128559E+00 -.154960E-01 -.629286E-01 0.103559E+00 -.123155E+00
0.400699E+00 0.738336E-01 -.215373E+01 -.174480E+01 0.333521E+00 0.550749E+00
0.684173E+00 -.753664E+00 -.187875E+00 -.407594E-01 0.883639E-01 0.116867E+00
0.217393E-01 -.188361E+00 0.105365E+01 0.275652E-02 -.516079E-01 -.133715E+01
-.364832E+00 0.227646E+00 0.218739E+00 -.132597E+01 0.733894E-01 -.127383E+00
0.240008E+00 0.946287E-01 0.265753E+00 0.320438E+01 0.690751E+01 -.406600E+01
0.389886E+01 -.172332E+01 0.204249E+01 -.659411E+00 -.838825E+00 -.224027E+00
0.130987E+00 0.705641E+00 0.124947E+01 0.244214E+01 -.568696E+01 0.237117E+01
-.479566E+01 -.355630E+01 -.191150E+01 -.575056E+00 -.172402E+00 -.292143E+00
-.177074E+00 0.126369E+00 -.504091E+00 0.583405E+00 -.308760E+00 -.123402E+01
0.437543E+01 0.340804E+01 0.225604E+00 -.118504E+01 -.180010E+01 0.113460E+01
0.234127E+00 0.342867E+00 -.342703E+00 -.166525E+00 0.532367E-01 0.197428E+01
-.115314E+01 -.725955E+00 -.107213E+01 0.254573E+01 0.665738E+00 -.420187E+00
-.438810E+00 0.263307E+01 -.117413E+00 0.439654E+00 -.671044E+00 -.896772E-01
-.294704E+01 -.641141E+01 -.111103E+02 0.518946E+01 -.969585E+01 0.448227E+01
-.166446E+01 -.956677E-01 0.227175E+01 0.836695E+00 -.331122E+00 -.125965E+01
-.262964E+01 -.420344E+01 0.838658E+01 -.486996E+01 0.117496E+02 0.395035E+01
0.129053E+01 0.194244E+01 -.215146E+00 -.376357E+00 0.735466E+00 0.134055E+00
0.976527E+00 -.108833E+01 -.370004E+00 0.131602E+01 -.299232E+01 -.237077E+01
-.623842E+00 0.626082E+00 0.116123E+01 -.520919E+00 -.107918E+00 -.399845E+00
0.323402E+00 0.663670E-01 -.109354E+00 -.219122E+01 0.480482E+00 0.465445E+00
0.129928E+01 -.189898E+01 -.155089E+00 0.685334E-01 0.314653E+00 -.163756E+01
0.386165E-01 -.406811E+00 0.511624E+00 -.116214E-01 0.299299E+01 0.405204E+01
0.581321E+01 -.261803E+01 0.704615E+01 -.339689E+01 0.259666E+00 0.784039E+00
-.149962E+01 -.727874E+00 0.203962E+00 0.757875E+00 0.176162E+01 0.278583E+01
-.390317E+01 0.325873E+01 -.838859E+01 -.168636E+01 -.651638E-02 -.163617E+01
0.184305E+00 0.829862E+00 -.606254E+00 -.244078E+00 -.668960E+00 0.695099E+00
-.197265E-02 0.306932E-01 -.427472E-01 -.142188E-01 -.163342E-01 0.149069E-01
0.375150E-01 -.457447E-02 -.507373E-01 0.972224E-02 0.666534E-02 0.395163E-02
-.417631E-02 0.191263E-02 0.455767E-01 0.357731E-01 0.174520E-01 -.136451E-01
-.413086E-01 0.163704E-01 0.516041E-01 -.223664E-02 -.718408E-02 0.781763E-02
0.612993E-02 0.361643E-02 -.290338E-01 -.162578E+00 0.503155E-01 -.121090E-01
-.698791E-01 0.945229E-02 0.279423E-01 -.230543E-01 0.834610E-01 -.628094E-02
-.428566E-01 0.241067E-01 -.105942E-01 -.125926E-01 -.791761E-01 -.116243E+00
0.884861E-01 -.852245E-03 -.171460E-01 0.186650E-01 -.853442E-01 -.200899E-01
0.413264E-01 0.460338E-02 -.670224E-03 0.185790E-01 0.192222E-01 -.773617E-01
0.298786E+00 0.103756E+00 -.946153E-01 -.517212E-01 -.292491E+00 -.125824E+00
0.327218E+00 -.183982E-01 0.920533E-03 -.418782E-01 0.623029E-01 -.483648E-01
-.334298E+00 -.190988E+00 0.413756E-01 0.493451E-01 0.358245E+00 -.638139E-01
-.336786E+00 -.202817E+00 0.315833E-01 0.120004E-01 -.126537E+00 -.335825E-01
0.430764E-01 0.337655E+00 -.111446E+00 0.302162E-01 0.198616E+00 -.133347E-01
-.521320E-01 0.181935E+00 -.194246E+00 0.158115E-01 0.800828E-01 -.583283E-01
0.408516E-01 0.541634E-01 0.153819E+00 0.260991E+00 -.236359E+00 0.723200E-02
0.410517E-01 -.297808E-01 0.197758E+00 0.175784E+00 -.754675E-01 0.133436E-03
-.216114E-01 -.512267E-01 -.299605E-01 -.445490E-01 -.190013E+00 -.101474E+00
0.207491E+00 0.223264E+00 0.488666E+00 0.239053E+00 -.397375E+00 0.391470E-01
0.313625E-01 0.832189E-01 -.128284E+00 0.124389E+00 0.235772E+00 0.142767E+00
-.116255E+00 -.251029E-01 -.586600E+00 0.246056E+00 0.413058E+00 0.362134E+00
-.830129E-01 -.337086E-02 0.228461E+00 0.678930E-01 -.465547E-02 0.428458E-02
0.373131E-02 0.178242E-01 0.274748E-01 0.193412E-01 -.882044E-02 -.116063E-01
0.157970E-01 0.192287E-01 0.828975E-03 -.375806E-02 0.320746E-02 0.760787E-03
-.100640E-02 0.413168E-03 -.255882E-01 0.151799E-01 0.989176E-02 0.188337E-01
-.161161E-01 -.883280E-02 -.155648E-02 0.150702E-01 -.158135E-02 -.409210E-02
-.908381E-02 0.110267E-01 -.181415E-01 0.106769E-01 0.177819E-01 0.455068E-01
-.481712E-01 0.167204E-01 -.207978E-01 0.377003E-01 -.201928E-01 0.248149E-02
0.624192E-02 -.914446E-02 0.119249E-01 0.851869E-02 -.867908E-02 0.167487E-01
0.375557E-01 0.439302E-01 0.205226E-01 0.212896E-01 0.202405E-01 0.330635E-01
-.430597E-02 -.915600E-03 -.177429E-02 -.822440E-02 0.561075E-03 0.709138E-03
-.192256E-02 0.165060E-02 -.166924E-01 0.187452E-02 -.246030E-02 -.310848E-02
0.245643E-02 0.113133E-02 0.107480E-01 0.182320E-02 0.521026E-02 -.588951E-02
0.576005E-02 0.691072E-03 0.135411E-01 0.104476E-02 0.865534E-02 0.548441E-02
-.114363E-02 0.333924E-03 -.121212E-01 0.373432E-02 -.201092E-02 -.706822E-02
-.213548E-02 0.344827E-02 0.130140E-02 -.159208E-02 0.902544E-03 0.151901E-01
0.972400E-02 0.743722E-02 -.125400E-01 0.405259E-02 0.192450E-02 0.129472E-02
0.194550E-02 -.505580E-02 -.326013E-02 -.723522E-03 -.189172E-02 0.948062E-05
-.135501E-01 0.127727E-01 0.123421E-01 0.413332E-02 0.549141E-03 0.371298E-02
-.154283E-02 -.645122E-02 0.277845E-02 -.161336E-02 0.290071E-02 0.329886E-03
-.343362E-02 0.477160E-03 0.184342E-03 0.120687E-01 -.521506E-03 -.106050E-01
-.117508E-02 0.390825E-03 -.126957E-03 -.516489E-02 -.152950E-02 0.108339E-02
0.340786E-02 -.147302E-02 0.763395E-03 0.465894E-03 0.186406E-02 0.143307E-01
-.150148E-02 -.832037E-02 -.639763E-02 -.213448E-02 0.657965E-03 0.382386E-02
0.529149E-02 -.163683E-02 -.117495E-02 0.695306E-03 0.127536E-02 -.360394E-02
-.272078E-02 0.351593E-02 -.769954E-02 -.259193E-02 -.470973E-02 -.623962E-03
-.345172E-02 0.279260E-03 -.418174E-03 -.274356E-03 -.294258E-02 -.158368E-02
0.568646E-03 -.643317E-02 0.946958E-02 0.344461E-02 0.629050E-03 -.186357E-03
0.136364E-03 -.219731E-03 -.108622E-03 0.325825E-04 -.551434E-05 0.210733E-05
0.447408E-04 0.664654E-05 -.171814E-04 -.148914E-04 -.237860E-05 0.111299E-02
0.114874E-02 -.480171E-02 -.505955E-03 -.304018E-02 0.162981E-03 -.166721E-04
-.223523E-03 0.138928E-03 -.800110E-04 0.259042E-04 -.667532E-04 -.815897E-05
0.213787E-02 -.395080E-02 -.394136E-02 0.156400E-02 0.834906E-03 -.821740E-03
0.240514E-04 0.337509E-04 -.161964E-02 0.229638E-03 0.682432E-03 0.623858E-03
0.406212E-03 -.336170E-02 0.704725E-02 0.575804E-01 -.886450E-02 0.317331E-01
-.417550E-02 -.425971E-03 0.339481E-02 -.300154E-02 0.182044E-02 -.127004E-02
0.589322E-03 0.122213E-02 0.493436E-02 0.428001E-01 0.236548E-01 -.709269E-02
0.218460E-02 0.765906E-03 -.151662E-02 -.145218E-03 0.113566E-01 -.261679E-02
-.472591E-02 -.256039E-02 -.337283E-02 -.215197E-01 -.571020E-01 -.257899E+00
0.586036E-01 -.120893E+00 0.226057E-01 0.497752E-02 -.159533E-01 0.157639E-01
-.985617E-02 0.669992E-02 -.223987E-02 -.658105E-02 -.564573E-01 -.123520E+00
-.550632E-01 0.213322E-01 -.133746E-01 0.680587E-02 0.670839E-02 -.327236E-03
-.293249E-01 0.781384E-02 0.122301E-01 0.372296E-02 0.913446E-02 0.150968E+00
0.110842E+00 0.555851E+00 -.126964E+00 0.211014E+00 -.508881E-01 -.159470E-01
0.331116E-01 -.341271E-01 0.211144E-01 -.136274E-01 0.456910E-02 0.135054E-01
0.895032E-01 0.140558E+00 0.546046E-01 -.288854E-01 0.190788E-01 -.142970E-01
-.972315E-02 0.132537E-02 0.318085E-01 -.900718E-02 -.133546E-01 -.194294E-02
-.101541E-01 -.249259E+00 -.822697E-01 -.558612E+00 0.118495E+00 -.172082E+00
0.518681E-01 0.195411E-01 -.315614E-01 0.328612E-01 -.196258E-01 0.123063E-01
-.481248E-02 -.122479E-01 -.401168E-01 -.560252E-01 -.194261E-01 0.133808E-01
-.865514E-02 0.761711E-02 0.455086E-02 -.927405E-03 -.122899E-01 0.360362E-02
0.519334E-02 0.138994E-03 0.400605E-02 0.123290E+00 0.204240E-01 0.208345E+00
-.408437E-01 0.532688E-01 -.196895E-01 -.816231E-02 0.112769E-01 -.116671E-01
0.660925E-02 -.413832E-02 0.199749E-02 0.410881E-02 -.173593E-03 0.393242E-03
-.135068E-02 0.164449E-03 0.336872E-03 -.150765E-03 -.197285E-04 -.308245E-04
0.616952E-05 0.181361E-04 -.466216E-04 0.416212E-05 0.185714E-04 0.381680E-03
0.915218E-03 -.951808E-04 -.287092E-03 0.212171E-03 -.163324E-05 -.135114E-03
-.100513E-04 0.103532E-04 0.374840E-04 -.170788E-04 0.986639E-05 0.453523E-04
0.297304E-03 0.456570E-02 0.203709E-02 0.273745E-03 -.833652E-03 0.875276E-03
0.720817E-03 -.485028E-04 -.653911E-05 0.167772E-03 0.646127E-04 -.521696E-04
0.358288E-03 -.471989E-02 -.178457E-02 -.183705E-02 0.139699E-02 0.508876E-03
-.988680E-03 0.330618E-04 -.311490E-03 -.309487E-03 -.225238E-03 0.155159E-03
-.421705E-03 0.102013E-03 -.979409E-02 -.179694E-02 0.108926E-01 -.106501E-02
-.269085E-02 0.505790E-02 0.174078E-02 0.111569E-02 0.223832E-03 -.490500E-03
0.135302E-02 -.395581E-03 -.966135E-03 -.996022E-02 0.176009E-02 -.449482E-02
0.884981E-03 -.160720E-02 -.569274E-03 0.299682E-02 0.955835E-03 -.617259E-03
-.991235E-03 0.111085E-02 -.355925E-03 -.199576E-02 0.399802E-02 -.488221E-01
-.516368E-01 0.111046E-01 0.246194E-02 -.158440E-01 -.248761E-01 0.227239E-02
-.497252E-03 -.319993E-02 -.163408E-02 0.320199E-03 -.611665E-02 0.751514E-01
0.362081E-01 0.308528E-01 -.132045E-01 0.925179E-02 0.278393E-01 -.117398E-02
0.489933E-02 0.596369E-02 0.305931E-02 -.298768E-02 0.601845E-02 -.139558E-02
0.106111E+00 0.474586E-01 -.277617E-01 -.492178E-02 0.163575E-01 -.385735E-01
-.271057E-01 -.630609E-02 0.118160E-02 -.358320E-03 -.468495E-02 0.414865E-02
0.842638E-02 0.593095E-01 -.218206E-01 0.101062E+00 -.327269E-02 -.412065E-02
0.160338E-01 -.204543E-01 -.962614E-02 0.821715E-02 0.584543E-02 -.118380E-01
0.421757E-02 0.156842E-01 0.450781E-02 0.187524E+00 0.341752E+00 -.884387E-01
0.140425E-01 0.104084E+00 0.160469E+00 -.126110E-01 0.716868E-02 0.160189E-01
0.808743E-02 -.244853E-02 0.325405E-01 -.330675E+00 -.265601E+00 -.140773E+00
0.511803E-01 -.100422E+00 -.172604E+00 0.292544E-01 -.268359E-01 -.269643E-01
-.139191E-01 0.167928E-01 -.301467E-01 0.764988E-02 -.352124E+00 -.199256E+00
0.347010E-01 0.257698E-01 -.517443E-01 0.115226E+00 0.106719E+00 0.140990E-01
-.915045E-02 0.972481E-02 0.362135E-02 -.142743E-01 -.251864E-01 -.163101E+00
-.680611E-02 -.384173E+00 0.151278E-01 0.318327E-01 -.731978E-01 0.577938E-01
0.311405E-01 -.276724E-01 -.134853E-01 0.392333E-01 -.146510E-01 -.445786E-01
-.847468E-01 -.307166E+00 -.944540E+00 0.237603E+00 -.679395E-01 -.275052E+00
-.405450E+00 0.280061E-01 -.244388E-01 -.351578E-01 -.149098E-01 0.889145E-02
-.727288E-01 0.628762E+00 0.812240E+00 0.300455E+00 -.100213E+00 0.306504E+00
0.428570E+00 -.106067E+00 0.655032E-01 0.505602E-01 0.280247E-01 -.403938E-01
0.685547E-01 -.196431E-01 0.438665E+00 0.291802E+00 -.376567E-01 -.398339E-01
